ply
format ascii 1.0
comment made by Taylor Dixon
element vertex 1698
property float x
property float y
property float z
end_header
0.292602 -0.151100 1.384409
0.197827 0.080771 0.953873
0.263671 0.040976 1.117043
0.380379 -0.101330 1.211132
0.243839 0.050396 1.104164
0.414435 -0.144766 1.299028
0.317093 -0.168862 1.367392
0.403894 -0.185557 1.351012
0.217337 -0.004276 1.186879
0.166790 -0.246824 1.509896
-0.226207 -0.078338 1.274376
0.217645 0.083689 0.957275
0.298431 0.016821 1.051797
-0.161383 0.062242 1.065445
0.197540 0.081080 0.954507
0.298915 0.015815 1.047447
-0.084255 0.085889 0.924506
-0.235477 0.060675 0.996177
-0.163143 0.062409 1.068003
0.234877 0.042924 1.125930
0.166434 -0.247650 1.510172
-0.090672 0.087621 0.935427
0.362651 -0.034128 1.124096
0.073194 0.144646 0.881459
-0.162163 0.061528 1.067490
0.378917 -0.145696 1.269624
0.018327 0.104723 1.025827
0.204461 0.121331 0.915097
-0.214894 0.020842 1.122898
0.298694 -0.256645 1.416461
0.114776 -0.047802 1.112507
0.307703 0.023015 1.039167
0.165526 -0.248781 1.513337
-0.334156 -0.089784 1.187033
0.286555 -0.068525 1.279645
-0.278013 -0.061274 1.126496
0.262078 -0.028074 1.230083
0.117326 -0.039034 1.120068
-0.245960 -0.076302 1.258138
0.097726 -0.066833 1.034204
-0.245403 -0.076894 1.255319
-0.259449 -0.101771 1.267321
0.269005 0.044141 1.005781
-0.292392 -0.015125 1.065195
-0.324407 -0.037555 1.096124
0.307841 -0.156227 1.380501
0.117648 -0.038868 1.119209
-0.259044 -0.105582 1.278618
-0.318346 -0.143800 1.220547
0.061215 -0.026720 1.067246
-0.104537 0.124829 0.901905
0.217215 -0.020857 1.216391
-0.032341 0.140659 0.886117
0.335654 0.036027 1.046696
-0.032653 0.130095 0.894834
0.296024 0.038131 1.022104
0.131276 0.100574 0.918247
0.237286 -0.243390 1.520380
0.222377 -0.050761 1.255868
0.363107 -0.032301 1.121673
0.012310 0.134163 0.890232
-0.266339 -0.102081 1.279162
-0.221256 0.017434 1.114821
-0.287608 -0.004702 1.051500
-0.220819 0.017181 1.112985
0.123172 0.116682 0.909186
-0.225433 0.057513 0.978973
-0.031456 0.106597 0.910524
0.217576 -0.020631 1.216720
-0.212222 -0.102969 1.293966
0.230199 -0.134069 1.379569
-0.214305 -0.102621 1.301425
0.135332 0.051632 1.104554
0.034169 -0.028386 1.063119
0.247777 0.051593 1.109434
0.397209 -0.019289 1.153944
0.208414 -0.050276 1.253836
-0.340648 -0.077542 1.158855
0.335671 0.036854 1.047730
0.118434 0.129494 0.901227
0.335815 0.036382 1.046464
0.363115 -0.032967 1.127470
0.397262 -0.019714 1.155535
0.397327 -0.019368 1.155784
0.208689 -0.050817 1.253139
0.263802 0.040531 1.114020
0.335631 0.036383 1.046999
0.397199 -0.019342 1.155075
0.380529 -0.101084 1.212512
0.335546 0.036147 1.045848
0.263854 0.040740 1.112368
0.267707 0.065382 0.980097
-0.079875 0.083689 1.051098
0.318770 0.052896 1.022009
0.252527 0.006782 1.178781
0.243904 -0.164421 1.412519
0.204316 -0.172370 1.435529
0.165957 -0.248264 1.511689
-0.071995 0.080987 1.059287
0.124669 0.117163 0.907628
0.198413 0.058050 1.102595
-0.072571 0.133399 0.892836
0.068953 0.115501 0.903560
-0.265144 -0.094147 1.265359
0.069535 0.115714 0.902605
0.361881 -0.080336 1.179019
-0.292556 -0.041106 1.230712
-0.072172 0.132729 0.892845
0.225080 0.066139 0.990681
0.205581 -0.174771 1.429461
0.207961 0.124937 0.928189
0.378953 -0.145361 1.266742
0.383572 -0.059147 1.164702
0.068770 0.116188 0.903152
0.137925 -0.185442 1.438675
0.273640 -0.328576 1.535804
0.291298 0.042776 1.017771
0.379008 -0.145999 1.266995
-0.319076 -0.144539 1.220177
0.375256 -0.035964 1.131751
0.361557 -0.080360 1.180115
-0.317090 -0.145152 1.217684
0.395807 -0.022451 1.140335
0.411745 -0.064620 1.191735
0.376728 -0.201960 1.325092
0.251902 0.081181 0.972114
0.138720 -0.184707 1.438978
-0.091465 0.080742 1.056342
-0.306188 -0.143769 1.200491
0.403380 -0.184929 1.348804
-0.268930 -0.043289 1.194755
0.285094 -0.067236 1.280080
-0.212608 0.082443 0.965515
-0.062335 0.208263 0.880960
-0.261384 -0.076253 1.245085
0.095827 -0.068555 1.042902
0.244773 0.031597 1.136842
0.376825 -0.199614 1.355532
-0.098169 0.128407 0.905233
0.337536 -0.034326 1.119294
-0.136179 0.055344 1.091063
0.117699 0.130169 0.902373
0.308370 -0.156070 1.379983
0.247675 -0.134022 1.374171
-0.125130 0.032486 1.125870
-0.123482 0.032372 1.124307
-0.283073 -0.109967 1.246821
0.204211 -0.174844 1.432806
-0.064614 0.104689 0.909600
-0.256034 -0.044800 1.174957
-0.125714 0.032499 1.126017
0.275860 -0.064975 1.283759
0.343589 -0.162948 1.314821
-0.251053 -0.020574 1.064491
0.263961 -0.017942 1.212944
0.207631 0.125524 0.929693
0.041538 0.032730 1.127042
0.140439 -0.214252 1.479168
-0.348567 -0.142865 1.250389
-0.242238 -0.069789 1.245547
-0.173758 0.061328 1.045866
-0.315663 -0.113394 1.187409
-0.222409 0.012029 1.124488
-0.258203 -0.029562 1.094714
0.195116 -0.152631 1.396862
0.140263 -0.214362 1.479121
-0.176530 0.061812 1.049149
0.083042 -0.396138 1.611616
0.247185 -0.091887 1.316697
0.375826 0.005215 1.106393
0.342329 -0.243514 1.393865
0.145246 0.089120 1.052600
0.364110 -0.001326 1.102993
0.130461 -0.055803 1.119930
0.124659 -0.387081 1.598787
0.083461 -0.395304 1.609458
0.173349 -0.374541 1.590541
0.142972 -0.131009 1.362834
-0.310094 -0.113790 1.179920
0.342635 -0.243635 1.394227
-0.133212 0.083332 1.044150
0.363868 -0.001936 1.097873
0.325472 -0.017502 1.097907
-0.280236 -0.112615 1.242016
0.142667 -0.130926 1.364269
0.082895 -0.322463 1.545607
0.123197 -0.388143 1.603510
0.084231 -0.394574 1.607845
0.277148 -0.065752 1.276675
-0.223313 0.017492 1.115498
0.328241 -0.021697 1.113289
0.083983 -0.048430 1.062876
-0.176249 0.060424 1.047233
0.114392 0.123250 0.903041
-0.091383 0.081189 1.055821
0.167208 -0.377307 1.610591
0.376186 -0.199644 1.350344
-0.280594 -0.112172 1.242931
-0.176629 0.087355 0.945298
0.372555 -0.111634 1.235780
-0.071999 0.086679 0.930110
0.084950 -0.393413 1.608643
-0.264470 -0.044870 1.190190
0.376396 -0.199644 1.349853
0.172248 -0.371701 1.575245
0.368708 0.003837 1.101848
-0.257435 -0.062434 1.238587
0.084455 -0.394226 1.608089
0.266009 0.068098 0.990416
0.375127 -0.036016 1.133459
0.370946 -0.165826 1.299238
0.375159 -0.036324 1.126507
0.263517 0.040734 1.112054
-0.263359 0.027335 1.024895
-0.182247 0.048815 0.990552
-0.127108 0.082249 1.038158
0.228310 0.116280 0.935023
0.216994 -0.022293 1.216347
0.228606 0.117884 0.937802
-0.091062 0.080010 1.054942
0.375273 -0.035423 1.135266
0.229280 0.114343 0.927973
0.341211 -0.208629 1.352663
0.140070 -0.214143 1.480652
0.217290 -0.022046 1.215295
0.368719 -0.034960 1.129605
0.403577 -0.184418 1.348710
0.403481 -0.185884 1.349902
-0.261497 -0.031487 1.098495
0.403305 -0.186842 1.355245
-0.281100 0.034139 1.027465
0.383148 -0.058887 1.167557
-0.165084 0.100007 0.930383
-0.290212 -0.087935 1.180074
0.318627 0.054051 1.023364
0.211674 0.054798 1.106270
0.415130 -0.136617 1.290919
-0.265109 -0.094578 1.264837
-0.289228 -0.088615 1.176321
0.129336 0.101923 0.924969
0.128487 0.146833 0.896527
0.393250 -0.026099 1.141966
-0.032140 0.132568 0.895034
0.117795 0.098370 0.930166
0.213718 0.088050 0.952174
-0.278478 -0.061261 1.126532
-0.139888 0.110724 0.917968
-0.018702 0.111425 1.013616
-0.062419 0.208478 0.878999
-0.120164 0.031916 1.122793
-0.131338 -0.018688 1.191831
0.115045 -0.286296 1.539179
0.197775 0.081548 0.955144
0.164977 0.068823 1.080963
0.415104 -0.137169 1.300088
0.041787 0.032950 1.127041
0.194143 -0.170998 1.425115
-0.205394 0.033901 1.007079
-0.362143 -0.122360 1.227500
0.415157 -0.136783 1.303953
-0.349926 -0.095783 1.184354
0.340517 -0.208657 1.353683
-0.205732 0.034119 1.007402
0.265952 0.000266 1.178281
0.083063 -0.321716 1.544315
-0.132200 0.056808 1.086341
0.414560 -0.136858 1.291144
-0.133163 0.117792 0.916174
0.083504 -0.322874 1.542830
0.363852 -0.001647 1.101369
0.375127 -0.035486 1.135279
-0.017265 0.111432 1.013297
0.247882 0.056845 0.990454
-0.199451 0.032580 0.998310
-0.252310 0.059071 0.993668
0.155361 -0.316510 1.514777
0.363691 -0.000750 1.105867
0.036473 -0.399600 1.604203
0.282697 -0.322976 1.528574
0.082192 -0.395351 1.609476
-0.223088 0.017237 1.115231
-0.194467 0.035435 1.000622
0.394444 -0.152647 1.285030
0.077965 -0.398475 1.628881
-0.266439 -0.027351 1.119949
0.253496 0.066936 0.978236
0.341858 -0.243775 1.396300
0.234672 0.043265 1.124992
-0.175765 0.102728 0.938895
0.095605 -0.287374 1.538845
0.290714 -0.140538 1.363988
0.116329 -0.286829 1.537137
0.376303 -0.199711 1.347123
0.318706 0.070199 1.017345
-0.258245 -0.061710 1.239201
0.247475 -0.091693 1.317091
0.370575 -0.165883 1.298856
-0.091385 0.080011 1.055982
0.029545 0.108455 0.916315
0.262829 -0.027842 1.227918
-0.098075 0.050750 1.099022
0.267490 0.043925 1.012465
-0.330765 -0.042225 1.107604
0.195042 -0.121467 1.355647
0.277660 -0.066093 1.277926
-0.126527 0.116843 0.912371
0.249122 0.033127 1.141769
-0.124594 0.117384 0.911426
0.294076 -0.151671 1.377612
0.247321 -0.133372 1.375616
0.246702 0.019983 1.160383
0.308325 -0.156364 1.376652
0.246835 0.019461 1.159054
0.264048 -0.018061 1.212228
0.386849 -0.098437 1.209532
0.053632 -0.339208 1.531197
0.195027 -0.121696 1.353311
0.190573 0.047364 1.116273
0.165031 0.069083 1.082370
0.190050 0.048680 1.117958
0.163557 0.070289 1.084638
0.219283 0.020907 1.155740
0.377393 -0.145245 1.272530
0.065940 -0.219909 1.479474
0.194081 -0.171015 1.424046
-0.165327 0.064379 1.070090
0.196679 -0.121992 1.350803
0.167144 -0.246760 1.509395
0.198996 0.058127 1.101383
0.194913 -0.121751 1.355059
0.219344 0.021282 1.156618
0.192329 -0.202314 1.457201
0.375768 -0.199903 1.347680
0.039833 -0.371034 1.549165
0.385471 -0.100536 1.212000
0.343204 -0.239097 1.388664
-0.250435 0.059002 0.992450
0.063399 -0.396056 1.596547
0.039174 -0.371334 1.553206
0.157742 0.086359 1.056654
-0.137476 0.054367 1.090046
-0.219149 0.014551 1.110878
-0.259563 -0.022263 1.070724
-0.193433 0.038153 1.093123
-0.028455 0.044297 1.105691
0.337422 -0.034190 1.122384
0.101346 0.082313 1.062507
0.116060 -0.286525 1.538329
0.224023 -0.050108 1.254279
-0.029873 0.045943 1.106431
0.247234 -0.091669 1.317371
0.226400 0.039795 1.126751
0.238279 -0.166855 1.415189
-0.006412 0.115752 1.005680
0.238152 -0.166482 1.415803
0.084063 -0.321761 1.541447
0.199099 0.058236 1.101771
0.282330 -0.322668 1.527412
0.083058 -0.321759 1.544579
0.108090 0.009969 1.165365
0.203914 -0.096731 1.325495
0.401354 -0.186931 1.369146
0.373905 -0.210146 1.387519
0.184847 0.003922 1.176061
-0.106102 0.097693 1.026881
0.185276 0.004528 1.176319
0.216853 -0.022099 1.215546
0.138343 -0.185301 1.440153
0.136545 -0.185299 1.442092
0.137471 -0.185132 1.440079
-0.121095 0.085739 1.037341
0.223073 -0.050602 1.255686
-0.158222 -0.002652 1.170114
0.197931 0.058826 1.103438
0.199592 0.058476 1.101575
-0.070541 -0.313593 1.525072
0.066823 -0.220155 1.477867
0.185262 0.004431 1.176296
0.217369 -0.003026 1.188625
0.196034 -0.152497 1.393063
0.195404 -0.152647 1.395141
0.083923 -0.216805 1.479001
0.135455 -0.252948 1.515597
0.205390 0.122013 0.917817
0.140183 -0.213828 1.480406
0.151615 -0.256472 1.515473
-0.070075 -0.313002 1.524995
0.084284 -0.217178 1.479744
0.083466 -0.217059 1.480854
0.066030 -0.220027 1.479531
0.230197 -0.132872 1.372801
-0.123145 0.032134 1.123125
0.341083 -0.208583 1.352932
0.344304 -0.136292 1.292936
0.041684 0.032463 1.127270
-0.200575 -0.047790 1.223673
0.378331 -0.147274 1.259796
0.244661 -0.131222 1.364373
0.222778 -0.051286 1.252929
0.372745 -0.123934 1.242643
0.247076 -0.092428 1.313367
-0.241373 -0.064683 1.237153
-0.200932 -0.048285 1.228748
0.404371 -0.041203 1.169896
-0.282299 0.018431 1.025452
0.071260 0.146796 0.887439
-0.200865 0.080025 0.944789
-0.200808 0.079867 0.945957
0.399479 -0.027434 1.153476
-0.133243 -0.017969 1.189133
-0.216204 0.068985 0.964163
-0.116975 0.059696 1.087332
0.162538 0.069162 1.083228
-0.053746 0.136989 0.889120
-0.297145 -0.008981 1.065709
-0.116823 -0.111140 1.308898
-0.117349 0.059346 1.085701
0.163039 0.068689 1.081966
-0.116181 -0.110419 1.309306
-0.117104 -0.110711 1.310245
0.389282 -0.100211 1.222457
-0.117240 -0.110597 1.310387
-0.213153 -0.103312 1.285804
-0.155512 0.036034 1.117537
0.215663 -0.005444 1.187854
-0.022114 0.065498 1.078386
0.136362 0.051102 1.108341
-0.021789 0.066440 1.080288
-0.145680 -0.138028 1.343666
-0.090635 0.079071 1.053832
-0.020314 0.110004 1.010025
-0.222865 -0.009895 1.167467
-0.231558 -0.011840 1.168203
-0.230735 -0.011373 1.166272
-0.022526 0.066258 1.078715
-0.181440 -0.095710 1.282498
-0.096959 0.048786 1.100989
-0.261843 -0.064226 1.225599
-0.261716 -0.064007 1.225009
-0.115628 -0.172006 1.381384
0.228164 0.048543 1.122888
-0.116329 -0.171702 1.380774
0.227424 0.047498 1.121219
0.228291 0.048420 1.122634
-0.117036 0.061296 1.088189
-0.117550 0.060887 1.086424
0.015493 0.104947 1.025164
0.187582 0.031881 1.136935
0.232931 0.043894 1.127589
0.015772 0.105587 1.025805
-0.196582 -0.040794 1.219874
-0.196500 -0.041097 1.219352
0.217247 -0.003397 1.187409
-0.022340 0.065646 1.078743
-0.022113 0.065700 1.078417
-0.154818 -0.306836 1.440225
-0.116830 -0.111432 1.307494
-0.115529 -0.171563 1.380579
-0.116733 -0.111527 1.308071
0.163614 -0.228268 0.902784
-0.115345 -0.171997 1.380724
-0.181949 -0.095518 1.280825
-0.086346 -0.192790 1.408916
0.162684 -0.229213 0.900331
-0.123419 -0.251192 1.448059
0.163169 -0.228922 0.900901
-0.117117 -0.111590 1.308831
-0.153718 0.037471 1.125435
0.228731 0.048683 1.122779
0.162761 -0.229253 0.899235
0.228460 0.048093 1.123393
-0.149428 -0.320660 1.435151
-0.110214 -0.323061 1.442762
0.163420 -0.228662 0.900968
0.162872 -0.229396 0.899219
-0.201304 -0.047321 1.228103
0.228658 0.048188 1.124089
0.162832 -0.229358 0.898873
0.228914 0.048661 1.125976
0.163585 -0.228747 0.901471
-0.122877 -0.250961 1.448763
-0.032863 -0.222175 1.458762
-0.214078 -0.076708 1.262717
-0.086761 -0.192771 1.409088
-0.164338 -0.209965 1.414680
-0.164781 -0.210100 1.413492
-0.124058 -0.249872 1.446184
-0.163519 -0.210297 1.415788
-0.124922 -0.250691 1.443489
-0.033377 -0.223003 1.458075
-0.034511 -0.223205 1.456109
-0.124861 -0.250175 1.442161
-0.094995 -0.371378 1.507750
-0.161930 -0.212483 1.416977
-0.052687 -0.232368 1.458816
-0.234178 -0.026107 1.188319
0.090134 0.109206 1.030998
-0.014852 -0.349391 1.475614
-0.036103 -0.224945 1.451927
-0.037365 -0.225149 1.452160
-0.125113 -0.011703 1.206089
0.248073 0.034554 1.146037
-0.021742 0.065648 1.078613
-0.126433 0.028568 1.123710
0.042484 0.032914 1.130386
-0.030998 0.044106 1.106919
-0.116580 -0.058335 1.242083
0.136457 0.051363 1.106665
-0.201638 -0.048987 1.222301
-0.130224 -0.337042 1.450541
0.176750 0.078698 1.096426
-0.092659 -0.312114 1.461782
-0.090773 -0.368738 1.516659
-0.130280 -0.337049 1.450447
-0.173411 -0.356954 1.482692
0.057984 -0.205879 1.464833
-0.048490 -0.026392 1.160159
-0.090404 -0.369071 1.516643
-0.010113 -0.346698 1.489316
-0.091713 -0.369369 1.514689
-0.042369 -0.063651 1.125221
0.058011 -0.205531 1.465293
-0.171962 -0.354358 1.491518
-0.031042 -0.220541 1.460423
-0.030877 0.044760 1.110927
0.077395 -0.301446 1.511340
0.142620 0.104554 1.041354
-0.008724 -0.345369 1.490515
-0.090777 -0.368319 1.517690
-0.145845 -0.317568 1.438455
-0.102284 -0.371348 1.518655
0.058254 -0.205936 1.465401
-0.174101 -0.356423 1.480873
-0.079107 0.063514 1.077058
-0.077368 -0.301082 1.475819
-0.146285 -0.318025 1.437851
0.077308 -0.301520 1.511438
-0.077340 -0.302716 1.472252
-0.122801 -0.262554 1.451058
-0.082391 -0.230805 1.449603
-0.145173 -0.317522 1.441232
-0.160396 -0.357751 1.495098
-0.099880 -0.370737 1.525924
-0.237753 -0.326137 1.443640
0.217722 0.119119 0.919579
0.077953 -0.301553 1.511709
-0.009251 -0.345306 1.488676
0.068518 -0.368152 1.551520
0.032098 -0.304033 1.495708
0.144020 0.095893 0.922043
0.070593 -0.367924 1.555880
0.267146 0.066774 1.058195
-0.172669 -0.355219 1.485996
-0.186711 -0.202771 1.389159
0.078257 -0.302851 1.511313
0.219513 0.082811 0.979438
0.169648 0.072556 1.090074
-0.123758 -0.248192 1.445535
0.265002 0.064487 1.055137
0.068501 -0.368683 1.551334
0.052640 -0.208214 1.457419
0.143248 0.104543 1.043164
0.261912 0.061794 1.051352
-0.023932 0.108080 1.006885
-0.080530 -0.304118 1.470388
0.033286 -0.303329 1.499996
-0.095736 -0.371111 1.507416
-0.088756 -0.193193 1.405952
-0.107550 -0.316712 1.456573
-0.107498 -0.316984 1.456403
-0.049672 -0.223646 1.065034
-0.048404 -0.222386 1.065466
-0.048121 -0.222378 1.064399
-0.047827 -0.222143 1.064863
0.131713 0.094421 1.045563
0.092115 0.095833 1.041037
-0.029668 -0.219990 1.460796
-0.027731 -0.255123 0.993814
0.138245 -0.194017 1.474891
0.077894 -0.300027 1.512430
0.197026 -0.291656 1.497326
0.107599 -0.264213 1.514376
-0.012212 -0.272532 0.967900
0.077367 -0.301042 1.511492
-0.125371 -0.302332 1.440974
-0.037274 -0.267208 1.008575
-0.058435 -0.171104 1.141418
-0.013877 -0.272791 0.966461
0.043016 -0.341458 1.509473
0.113885 -0.356807 1.567888
-0.078415 -0.363439 1.496021
-0.057456 -0.170121 1.142232
-0.035219 -0.266382 1.010384
-0.014926 -0.180350 1.009586
-0.147225 -0.140339 1.334142
0.143897 0.057195 1.115499
0.212641 0.068482 1.118278
-0.049955 -0.026258 1.159566
0.057959 -0.205994 1.464854
0.070911 -0.367308 1.553702
-0.027089 -0.254239 0.993608
-0.066109 -0.376066 1.530431
0.196296 -0.292927 1.497340
-0.032275 -0.353770 1.494142
-0.058034 -0.171071 1.141753
-0.029924 -0.260840 1.017477
-0.015386 -0.181087 1.009229
0.077873 -0.300762 1.512080
0.113488 -0.356161 1.568052
-0.198814 -0.314443 1.401716
-0.067084 -0.376597 1.529551
-0.035224 -0.265985 1.010389
0.155888 -0.345892 1.556924
0.108043 -0.264783 1.514839
-0.079639 -0.304603 1.468553
-0.127763 -0.367565 1.508457
0.137338 -0.194483 1.474443
-0.027668 -0.254491 0.991823
0.112346 -0.356075 1.566623
-0.052895 -0.232516 1.461182
0.196600 -0.292076 1.498225
-0.146858 -0.139597 1.334764
0.157730 -0.345143 1.558433
0.089166 0.108393 1.030893
-0.015427 -0.180975 1.009029
0.108251 -0.264710 1.514897
-0.027361 -0.254488 0.993590
0.014425 0.106163 1.025333
0.128530 -0.189720 1.450992
-0.106911 -0.302794 1.459063
0.236904 0.092247 1.017601
0.196613 -0.292754 1.498273
-0.065153 -0.375190 1.532960
-0.058105 -0.128887 1.238687
0.156754 -0.345757 1.557429
-0.044750 -0.261315 1.123297
0.074142 -0.364749 1.562838
-0.015228 -0.180841 1.009456
-0.003796 -0.232894 0.966221
0.235812 0.091120 1.016807
0.112628 -0.355414 1.567000
-0.028716 -0.351416 1.502191
-0.058135 -0.128959 1.239070
-0.040703 -0.379662 0.970037
0.091191 0.124723 1.009842
-0.037070 -0.268412 1.008299
0.164801 -0.343245 1.566471
0.181731 0.109866 1.004558
-0.044778 -0.261656 1.123323
0.108209 -0.264502 1.515082
0.160882 -0.225473 1.502365
-0.033976 -0.190845 1.049462
0.140527 -0.182677 1.464165
-0.002438 -0.232012 0.967783
-0.019947 -0.279017 0.961183
0.171311 0.076374 1.107760
0.043529 -0.341968 1.508402
-0.066960 -0.376549 1.527068
0.182160 0.110829 1.004530
-0.047118 -0.221786 1.065832
-0.051035 -0.266430 1.068853
-0.015992 -0.181834 1.008322
0.161040 -0.225136 1.502879
0.303076 0.074665 1.011194
-0.026316 -0.253240 0.993590
0.145575 0.097273 0.922631
0.196942 -0.292306 1.499363
-0.032675 -0.221071 1.459924
-0.059778 -0.156770 1.138634
0.182721 0.109615 1.004528
0.091796 0.126416 1.010171
-0.023906 0.103509 1.022164
0.053104 0.113439 0.955439
-0.098694 -0.353024 1.476590
0.142812 -0.319489 1.504771
-0.098992 -0.353405 1.476340
-0.077805 0.063790 1.077225
-0.098793 -0.352901 1.476827
0.142132 0.103314 1.040569
-0.071042 -0.061326 1.254387
0.141640 0.102894 1.041014
0.150111 0.105117 0.923064
0.088010 0.108416 1.030411
-0.142522 -0.221590 1.424133
-0.116425 -0.057281 1.242413
-0.116327 -0.057935 1.241925
0.152662 0.109530 0.922711
-0.113334 -0.169630 1.382928
0.046881 0.037212 1.135474
-0.080114 0.062143 1.075619
-0.036528 -0.265223 1.010731
-0.070714 -0.060513 1.254974
0.090352 0.109915 1.031752
-0.002906 -0.233615 0.965503
0.261706 -0.273495 1.483273
0.046639 0.036814 1.135114
-0.040257 -0.016982 1.154522
-0.047253 -0.269361 1.056516
-0.091775 -0.369351 1.514139
-0.049133 -0.255555 1.093708
0.097652 -0.332551 1.512369
-0.038366 -0.267238 1.008252
-0.047592 -0.254837 1.095360
0.154352 0.111211 0.923398
-0.058920 -0.155472 1.140444
0.107563 -0.263811 1.514138
0.200433 -0.171332 1.475733
0.019786 -0.373160 1.551913
0.272524 -0.279176 1.490687
-0.059811 -0.156044 1.139659
-0.037933 -0.378939 0.978629
-0.057793 -0.213551 1.125752
-0.048420 -0.255723 1.094286
-0.041113 -0.269047 1.132802
0.171788 0.107079 0.931531
0.150588 -0.284660 1.507405
0.157265 -0.346147 1.558104
-0.040169 -0.384475 0.977016
0.159529 -0.226579 1.500907
-0.051881 -0.258209 1.091897
-0.039880 -0.268798 1.133015
-0.021846 0.116402 1.009898
0.225771 0.088059 0.981660
0.019255 -0.373036 1.551496
0.274957 -0.266396 1.474918
-0.043282 -0.021109 1.151372
-0.060279 -0.156564 1.138875
-0.019325 -0.277508 0.961668
-0.053311 -0.201664 1.180333
0.160031 -0.226634 1.501748
-0.041280 -0.269282 1.132581
0.152543 -0.283752 1.508249
0.066545 -0.366694 1.552890
0.097140 -0.332767 1.511973
-0.047493 -0.222118 1.065049
-0.048322 -0.197353 1.185479
0.226662 0.089369 0.982175
0.097735 -0.332709 1.511821
0.268750 -0.281138 1.487705
-0.052521 -0.200794 1.181025
-0.032038 -0.178674 1.042859
0.142842 -0.166206 1.444392
0.216777 0.070450 1.004948
0.096797 -0.333391 1.510870
0.022979 -0.370569 1.558622
-0.035619 -0.207047 1.212251
-0.026504 0.111561 1.007436
0.226624 0.089692 0.982567
0.242277 -0.213513 1.486649
0.196052 -0.326396 1.535241
-0.070738 -0.060744 1.254661
0.112426 -0.356173 1.567052
0.264675 0.098946 0.973793
0.181698 0.111176 1.005756
-0.120271 -0.248517 1.451723
-0.012616 -0.178814 1.012052
-0.017912 -0.233245 0.986815
-0.119501 -0.247955 1.453077
0.177660 0.106087 1.002368
0.006030 -0.222849 0.958232
-0.080765 -0.302843 1.471811
0.196727 -0.292258 1.497672
-0.035275 -0.219677 1.034351
0.137884 -0.193873 1.474841
-0.080136 -0.304127 1.471876
0.272366 0.068611 1.011380
-0.033895 -0.343984 1.001518
-0.037425 -0.221761 1.031950
-0.028171 -0.288086 0.980983
0.273773 0.070399 1.012646
-0.025313 -0.368852 1.532354
-0.034592 -0.219319 1.034582
0.137697 -0.194236 1.474717
-0.041608 -0.304091 1.055423
-0.026312 -0.166526 1.046027
-0.030511 -0.219961 1.460875
-0.031402 -0.220250 1.460573
0.137940 -0.194067 1.474640
0.256015 -0.308434 1.543988
-0.169625 -0.200377 1.392966
-0.169457 -0.199910 1.393389
0.254371 -0.308522 1.542272
0.227335 -0.311970 1.518615
-0.170018 -0.199576 1.393608
0.019095 -0.373947 1.550821
0.259571 -0.306160 1.546204
-0.034058 0.042916 1.108527
-0.013438 -0.145070 1.049960
-0.033412 -0.354291 1.492541
-0.169893 -0.199357 1.393206
0.041964 -0.344070 1.505293
-0.042786 -0.021750 1.151448
0.252953 -0.308551 1.540349
-0.059599 -0.226313 1.460346
0.075667 -0.200886 1.464995
-0.057188 -0.127064 1.238959
0.076520 -0.301035 1.511624
0.144395 -0.164677 1.434954
0.185826 -0.181219 1.468673
0.183739 0.108852 0.938743
0.149475 -0.285167 1.506624
0.098370 -0.331913 1.513474
-0.076688 -0.358775 1.488375
0.013139 0.105917 1.025750
-0.025275 0.068070 1.079669
0.090196 0.125278 1.009934
-0.039045 -0.187915 1.194000
-0.025349 -0.283475 0.958807
0.227900 0.092193 0.972094
-0.057659 -0.127975 1.238687
-0.114916 -0.171956 1.380197
0.050091 0.111881 0.954347
0.089280 0.123104 1.009036
-0.053135 -0.200570 1.179940
-0.045686 -0.260885 1.122983
0.018917 -0.374223 1.551441
-0.035433 -0.206586 1.212868
0.151738 -0.159614 1.441302
0.235901 0.092001 1.017737
-0.025205 -0.283195 0.958894
0.151979 -0.349068 1.554993
0.149589 -0.285130 1.506550
-0.145299 -0.316769 1.438095
0.299479 -0.252858 1.472786
0.012961 0.105277 1.025656
0.090339 0.125551 1.009127
0.238274 0.093889 1.018255
0.206392 -0.156765 1.438375
0.151883 -0.348719 1.554763
0.014974 0.094104 0.913605
-0.089751 -0.367194 1.518201
0.149896 -0.285119 1.506740
0.220394 0.085487 0.969861
0.252533 -0.310353 1.540665
0.017049 0.109220 1.026395
-0.057861 -0.128020 1.238454
-0.044735 -0.260501 1.123624
0.089993 0.123932 1.009122
-0.053613 -0.200834 1.179779
0.236347 0.091971 1.017203
0.224075 -0.258341 1.491508
0.139058 -0.318568 1.508873
0.206511 0.106187 0.940404
0.016067 0.109385 1.027230
0.139942 -0.166925 1.442444
0.049725 0.110891 0.953655
-0.011909 0.116535 1.000347
0.214594 -0.267557 1.484056
0.017809 0.098290 0.914343
0.082836 0.121045 0.916665
0.221936 0.086793 0.969737
0.277225 -0.258595 1.466199
0.326010 -0.233328 1.451840
-0.071808 -0.062154 1.253594
-0.057164 -0.127895 1.238695
-0.028308 -0.370818 1.527805
0.186670 0.116651 1.006882
0.160005 -0.149649 1.456501
-0.048684 -0.213800 1.171566
0.153717 0.109499 0.923291
0.019041 0.099524 0.915574
0.076920 0.114838 0.915002
0.151846 -0.348854 1.554323
0.205371 -0.146273 1.440519
-0.104089 -0.372055 1.516874
-0.017715 -0.340460 1.510942
0.098424 -0.332144 1.513058
-0.057657 -0.128635 1.238545
0.048624 0.107641 0.951988
0.263934 0.099822 0.972957
0.237588 0.093740 1.018057
-0.104347 -0.371363 1.517756
-0.043738 -0.291299 1.105556
-0.017919 -0.277520 0.962723
0.078638 0.113823 0.916548
-0.017918 -0.330950 1.123692
0.020356 -0.359094 1.506397
0.084553 0.123165 0.917677
0.203478 -0.147540 1.439400
0.117495 -0.324190 1.506768
-0.024971 -0.224339 1.171550
-0.042580 -0.261701 1.039963
0.021285 -0.358333 1.507763
-0.040470 -0.159675 1.245381
-0.059029 -0.237259 1.455819
0.078443 -0.201309 1.466798
-0.133816 -0.018814 1.189301
0.005009 -0.302752 1.499115
-0.087517 -0.193309 1.406937
0.314164 -0.277930 1.537460
-0.037106 0.041026 1.104943
-0.105639 -0.373377 1.515707
0.009281 -0.173060 1.281150
-0.031143 -0.172538 1.254718
0.216184 -0.122606 1.420832
0.412966 -0.190569 1.437104
0.259741 -0.275220 1.481431
-0.081327 0.061094 1.075104
0.017084 -0.375602 1.548822
0.008738 -0.171715 1.281127
-0.044705 -0.259724 1.123783
-0.022374 -0.340226 1.100532
0.077599 -0.300337 1.512334
-0.057541 -0.205538 1.116064
0.282602 -0.120987 1.452080
0.414934 -0.189392 1.438627
0.313721 -0.278404 1.536660
-0.105295 -0.372827 1.516429
-0.089891 0.051918 1.071938
-0.039331 -0.379458 0.972414
-0.043931 -0.292478 1.105268
-0.052432 -0.226420 1.064278
-0.004520 -0.264742 0.933376
-0.060575 -0.199038 1.107009
-0.057080 -0.212771 1.126871
-0.149289 -0.321194 1.432559
-0.038856 -0.258404 0.990919
-0.016068 -0.319215 1.151385
0.170136 0.104984 0.930831
-0.026479 -0.343740 1.098053
-0.042667 -0.269858 1.132900
-0.044367 -0.292834 1.104982
-0.061003 -0.157615 1.138673
-0.056278 -0.204096 1.116856
-0.110303 0.062500 1.047856
0.331654 -0.143848 1.445753
-0.002195 -0.308518 1.159603
0.263241 -0.132725 1.444213
0.407235 -0.193049 1.434620
0.004433 -0.176357 1.277983
-0.042493 -0.161870 1.244717
-0.038684 -0.379173 0.972382
-0.027920 -0.287248 0.958437
0.106779 -0.255523 1.504849
-0.037809 -0.172983 1.051103
-0.028040 -0.168951 1.257361
0.148954 -0.350583 1.551936
0.154385 0.110354 0.923494
0.190588 -0.179074 1.471072
0.100967 -0.362241 1.555623
0.308218 -0.199038 1.470638
-0.039716 -0.379507 0.971893
-0.031045 -0.288915 0.957899
0.004255 -0.176537 1.277637
0.024211 -0.304594 0.871991
-0.055320 -0.271108 1.068394
-0.044303 -0.181120 1.047607
-0.003190 -0.309388 1.159820
0.159664 -0.226459 1.500272
0.403487 -0.195814 1.432366
-0.034836 -0.254215 0.993445
0.327045 -0.269863 1.511329
0.264334 -0.271816 1.485846
-0.040731 -0.380212 0.970966
-0.106555 -0.374565 1.514009
-0.041778 -0.162627 1.244149
0.097742 0.123488 1.009821
0.006741 -0.449166 1.068047
-0.055693 -0.271377 1.068450
0.111646 -0.251374 1.510443
0.004191 -0.176594 1.278071
-0.018319 -0.330462 1.123798
-0.052875 -0.220672 1.466865
-0.033503 -0.214946 1.208009
-0.040878 -0.176836 1.049171
-0.143427 -0.314808 1.440994
0.226115 0.089582 0.969619
0.216404 -0.121989 1.421128
0.262084 -0.133596 1.443612
0.401878 -0.196088 1.431815
0.190896 -0.178967 1.464425
0.173615 0.107207 0.931582
-0.080529 -0.364902 1.492580
-0.024958 0.067805 1.079591
0.261875 -0.273356 1.484239
-0.086277 0.060046 1.074375
-0.047201 -0.148022 1.233111
0.000677 -0.452427 1.065707
0.160342 -0.226301 1.501444
-0.046223 -0.262825 1.122736
0.111517 -0.251170 1.510312
-0.114759 0.053804 1.044616
-0.027932 -0.282054 0.964869
-0.004392 -0.310135 1.158855
-0.059366 -0.206331 1.115982
0.263052 -0.133220 1.444219
0.172831 0.107181 0.931910
0.059910 0.087552 0.904838
-0.096576 -0.088399 1.293338
0.016536 0.109511 1.026482
0.003422 -0.305231 1.502374
-0.058197 -0.225455 1.460668
0.077997 -0.301389 1.512300
0.190748 -0.179295 1.470796
0.216682 -0.121727 1.421849
0.269282 -0.129211 1.444499
0.173437 0.106985 0.932365
-0.079778 -0.364297 1.493148
0.302408 -0.282711 1.519444
-0.041553 -0.161340 1.244166
0.005438 -0.175180 1.278606
-0.043949 -0.181057 1.048014
0.024426 -0.304486 0.872088
-0.054455 -0.270533 1.068458
0.109124 -0.354552 1.563607
0.176462 0.110129 0.932654
0.212010 -0.141100 1.444662
-0.005396 -0.311206 1.158306
0.400371 -0.197130 1.431228
0.061742 0.088362 0.904379
-0.038674 -0.317920 1.019612
0.306128 -0.167597 1.404292
-0.107492 0.066770 1.048660
0.192704 -0.177849 1.472175
0.139328 -0.346665 1.545839
0.152894 -0.283512 1.508469
0.116933 -0.324284 1.506715
0.261818 -0.274337 1.484755
-0.079761 -0.364336 1.493292
0.011316 0.102496 1.024840
-0.085521 0.060166 1.074662
0.016247 0.109641 1.026827
0.144425 -0.283063 1.512581
-0.004376 -0.261092 0.940131
-0.040111 -0.270885 1.007214
-0.061486 -0.174375 1.140063
0.201975 -0.149583 1.438185
0.220334 -0.260087 1.489707
0.196961 -0.175691 1.467803
0.220653 -0.260266 1.489620
-0.042684 -0.350880 0.995871
0.204746 -0.147794 1.439880
0.195829 -0.176459 1.467096
-0.017123 -0.183205 1.008350
0.139795 -0.285805 1.508039
0.159585 -0.322740 1.504110
0.269953 -0.247757 1.476373
-0.056660 -0.204341 1.116499
0.205950 -0.146780 1.440720
-0.039481 -0.384369 0.976998
-0.058213 -0.206215 1.115903
0.064655 -0.367737 1.550356
-0.018132 -0.330894 1.123759
-0.072660 -0.226117 1.456651
-0.034563 -0.213896 1.038882
-0.029406 0.108604 1.006845
0.118032 -0.324246 1.506726
-0.035683 -0.294412 0.975796
0.196164 -0.175267 1.470212
0.028902 -0.337100 1.503959
-0.028365 -0.370113 1.528068
0.069829 0.101531 0.905191
-0.049468 -0.397851 0.986816
0.105395 -0.266296 1.512432
-0.149653 -0.143138 1.331259
-0.041738 -0.164322 1.243489
0.141640 -0.191297 1.477336
0.159506 -0.226139 1.500171
-0.207201 -0.053372 1.215676
-0.175575 -0.118197 1.304270
0.160128 -0.225954 1.500443
0.054809 -0.361800 1.517164
0.340366 -0.179981 1.440729
0.109852 -0.252724 1.508530
-0.032537 -0.351114 1.487496
-0.176235 -0.119788 1.303748
0.075948 -0.302772 1.510212
-0.033766 -0.355183 1.491805
0.017366 -0.361552 1.504461
0.063168 0.092412 0.906579
0.019438 -0.360039 1.506022
-0.091928 0.050174 1.071474
0.149824 -0.285182 1.506766
0.001752 -0.306972 1.500858
-0.107879 -0.361483 1.482636
-0.090988 0.050081 1.071836
0.109940 0.125758 1.034395
0.208783 -0.298020 1.498915
0.142306 -0.166171 1.444462
0.061657 -0.203036 1.467597
0.462783 -0.148258 1.417301
0.420227 -0.199738 1.481592
-0.094824 -0.374180 1.520694
0.452751 -0.154456 1.412583
-0.137696 -0.024657 1.186247
0.413661 -0.203920 1.477381
-0.095262 -0.374886 1.519695
0.165384 -0.102656 1.386817
-0.145459 -0.317058 1.437889
0.444936 -0.159232 1.409079
-0.094625 -0.349660 1.481259
0.196013 -0.292912 1.496709
0.061355 -0.203550 1.467348
0.464150 -0.146678 1.418486
0.264296 -0.212137 1.476079
-0.096677 -0.352047 1.478343
0.445265 -0.159485 1.408938
0.281251 -0.095692 1.413799
0.296989 -0.215071 1.470403
-0.087337 0.059231 1.073512
-0.029654 0.052613 1.108326
0.152413 -0.156024 1.451550
0.211726 -0.125856 1.417638
-0.031359 0.049398 1.108015
0.349039 -0.253965 1.502132
-0.066989 -0.220765 1.461074
0.404295 -0.209017 1.472171
0.332238 -0.143434 1.445917
-0.131558 -0.374984 1.499949
-0.096628 -0.352269 1.478435
-0.106824 -0.374516 1.514042
-0.075233 -0.358006 1.488944
-0.037977 0.039991 1.105195
0.022902 -0.341066 1.497760
0.293194 -0.217079 1.468146
-0.067021 -0.365239 1.495572
-0.031635 0.048215 1.107869
-0.023439 0.070455 1.079979
0.101962 -0.361112 1.556388
0.431930 -0.191856 1.485974
-0.154589 0.041869 1.018911
0.330970 -0.144313 1.445653
-0.063211 -0.371029 1.507351
-0.060663 -0.208736 1.115058
0.265886 -0.132747 1.442921
-0.154546 0.042886 1.019318
0.331553 -0.143593 1.447377
0.144034 -0.242603 1.489188
-0.025438 0.066869 1.078310
-0.023709 0.069230 1.079425
-0.026535 0.064134 1.077629
0.024315 -0.338345 1.499444
-0.115459 -0.109255 1.310230
-0.114973 -0.108833 1.310203
0.225102 -0.312984 1.516921
0.000626 -0.307940 1.499872
-0.116890 -0.058178 1.241786
-0.175259 -0.117625 1.305346
-0.061132 -0.174330 1.140183
0.159821 -0.225875 1.500350
-0.032965 -0.282027 1.150468
-0.063829 -0.178411 1.138450
-0.131197 -0.338076 1.448430
-0.028876 -0.199014 1.216079
0.118209 -0.346818 1.520229
0.043507 0.096680 0.966580
-0.131786 -0.338712 1.447837
0.279313 -0.122304 1.447588
-0.065991 0.037682 0.911126
-0.041484 -0.288377 1.106936
-0.033490 -0.282740 1.150345
-0.005620 -0.351764 1.127206
-0.008619 -0.319693 1.151502
-0.080002 -0.185460 1.415317
-0.034772 -0.215566 1.207580
-0.158165 0.010977 0.939624
-0.012019 -0.168653 1.271831
-0.095894 -0.375646 1.518592
-0.033162 -0.203876 1.214070
0.050108 -0.177889 1.293535
-0.145185 -0.316874 1.437429
0.436105 -0.163203 1.408211
-0.046133 -0.243503 1.152360
-0.030009 -0.279513 1.152360
0.273826 -0.125384 1.446856
-0.028506 0.053461 1.109498
-0.052422 -0.286502 1.003262
-0.159756 0.007849 0.939105
0.401518 -0.209284 1.469284
0.046913 -0.180896 1.291191
-0.106624 -0.340833 1.461165
-0.106188 -0.374582 1.514127
-0.040529 0.096209 0.989344
-0.036614 0.105818 0.988996
-0.081464 -0.365315 1.491732
-0.147354 -0.140671 1.334341
-0.055431 -0.193384 1.110039
-0.031024 -0.346248 1.096661
-0.144958 -0.137915 1.336054
0.078634 -0.339695 1.504707
0.073211 -0.342373 1.499361
-0.057804 -0.195656 1.108525
0.094122 -0.366908 1.550601
-0.071952 -0.380065 1.524958
0.297328 -0.102118 1.422691
0.263173 -0.212903 1.475542
0.319745 -0.152879 1.437429
0.148373 -0.350975 1.553173
0.296873 -0.102415 1.422304
0.436352 -0.081687 1.393656
-0.072236 -0.380420 1.524339
0.191063 -0.159864 1.454226
-0.069891 -0.378465 1.526791
0.191725 -0.159768 1.454457
-0.079291 -0.363814 1.493631
-0.069199 -0.378389 1.526828
0.404388 -0.195570 1.432863
0.347469 -0.138608 1.426318
0.431396 -0.085700 1.390519
-0.086657 0.111922 1.053530
0.026974 -0.380343 1.543229
0.232619 -0.221323 1.481002
0.353199 -0.134084 1.429320
-0.070187 -0.378971 1.526187
0.193401 -0.176323 1.473653
-0.165336 -0.003302 1.161431
-0.003918 0.129923 1.001245
-0.129503 -0.372083 1.502942
-0.188638 0.020005 1.069615
0.080835 -0.371928 1.113440
0.279564 -0.296363 1.527479
0.280765 -0.099028 1.401927
0.244756 -0.211228 1.489335
0.287985 -0.220408 1.465370
0.277695 -0.100823 1.400765
0.276353 -0.298782 1.525219
-0.016044 0.109775 0.999340
-0.193198 0.022557 1.048015
0.279700 -0.296166 1.526639
0.283272 -0.095748 1.403744
-0.104884 0.074942 1.047116
-0.073187 0.043726 0.984110
0.139155 -0.320999 1.502313
-0.177189 -0.120611 1.302948
0.191711 -0.159508 1.454592
-0.170889 -0.015487 1.157353
-0.031059 0.048632 1.107475
-0.151065 0.028071 0.939669
0.014216 -0.432606 1.102660
0.031812 -0.376388 1.547609
-0.129830 -0.336818 1.449440
0.193762 -0.157806 1.455567
0.375644 -0.112052 1.405747
0.217894 -0.325844 1.543841
-0.029018 -0.209944 1.210726
-0.034801 -0.350077 1.095731
0.187484 -0.310660 1.496538
-0.170463 -0.014001 1.158308
-0.079244 -0.186779 1.413766
-0.151308 0.027441 0.939532
0.017651 -0.429542 1.103161
0.430040 -0.086822 1.390117
0.023413 -0.315002 1.189130
0.327232 -0.232204 1.453812
0.392992 -0.216108 1.467827
-0.175864 0.010004 0.921542
-0.137157 -0.021818 1.187294
-0.168143 -0.008784 1.159646
0.016537 -0.431084 1.103696
-0.151829 0.026333 0.938823
0.020716 -0.317279 1.187390
0.324088 -0.234289 1.452323
0.013131 -0.468713 1.081950
-0.152232 0.025989 0.938871
-0.031758 -0.347224 1.095965
0.019342 -0.428509 1.103685
-0.051695 -0.269425 1.120838
-0.189647 0.032305 1.049339
-0.042876 -0.338088 1.085949
-0.095990 0.053488 0.917231
-0.014130 -0.360281 1.124087
-0.007306 -0.313264 1.159684
0.438977 -0.164630 1.406988
-0.078202 -0.362482 1.494468
-0.175184 0.010652 0.921358
0.084100 -0.449649 1.126511
-0.148778 0.064679 1.029034
-0.028980 -0.341082 1.115277
-0.062274 -0.238375 1.060745
0.398469 -0.111091 1.374907
0.054723 -0.288201 1.224045
0.142983 -0.318088 1.505874
-0.062528 -0.238646 1.060214
0.080291 -0.444176 1.128533
-0.153490 0.022678 0.939175
-0.062861 -0.176973 1.139404
0.016686 -0.430647 1.103129
-0.096079 0.053549 0.917365
-0.004657 -0.455957 1.065750
0.394797 -0.114691 1.373630
0.151723 -0.347870 1.554475
0.041796 -0.363428 1.166196
-0.003307 -0.263769 1.208256
-0.062905 -0.238696 1.059860
0.084915 -0.448412 1.126871
-0.005983 -0.457279 1.065360
0.017447 -0.430077 1.102662
-0.050580 -0.192202 1.045002
0.139899 0.175586 1.039449
-0.146692 -0.364836 1.495078
-0.004820 -0.456364 1.065445
0.088492 -0.445380 1.127983
-0.010191 -0.376823 1.542713
0.132346 0.163937 1.038513
-0.060484 -0.297260 1.002004
-0.006267 -0.311768 1.158506
0.336586 -0.130824 1.425218
-0.003536 -0.350810 1.128634
0.038496 -0.366718 1.164130
-0.005928 -0.456838 1.065097
-0.108174 -0.361012 1.481924
-0.022207 -0.162769 1.261132
0.062276 -0.369337 1.548888
-0.043850 -0.290258 1.105560
0.330166 -0.116546 1.425082
0.373988 -0.157106 1.414398
-0.054813 -0.270928 1.068089
-0.125964 0.067656 1.005936
0.138037 -0.319066 1.507390
-0.020376 0.073904 1.080852
-0.046581 -0.291265 1.105172
0.373758 -0.157978 1.413859
-0.015265 0.081788 1.082458
0.366634 -0.129524 1.417766
-0.053855 -0.391556 0.965616
0.139070 -0.193307 1.475749
-0.117560 0.084411 1.008406
0.325062 -0.234423 1.450424
-0.036816 -0.211657 1.210177
-0.044929 -0.272126 1.131648
0.000484 -0.257620 1.212346
0.337862 -0.181522 1.439000
-0.208801 -0.014204 1.046429
0.061871 -0.369217 1.548874
0.009744 -0.370202 1.132826
0.007998 -0.371479 1.132444
-0.002572 -0.262127 1.209648
0.341415 -0.178724 1.441296
-0.206774 -0.051083 1.216087
0.118562 -0.346512 1.520502
0.143340 -0.237007 1.506452
0.011068 -0.369026 1.133677
0.114180 -0.350901 1.516822
0.053905 -0.429187 1.127227
0.117032 -0.348620 1.519835
0.006537 -0.373205 1.132200
-0.029549 -0.364142 1.495682
0.347160 -0.253651 1.500369
0.074818 -0.448536 1.127571
0.104678 -0.348080 1.512993
0.140297 -0.322939 1.503000
0.293330 -0.215857 1.468337
-0.209367 -0.104082 1.275968
-0.213677 -0.084773 1.245829
-0.045637 -0.384700 0.999996
-0.112358 -0.106623 1.313260
-0.002982 -0.455025 1.066634
0.236792 -0.074255 1.364827
0.100849 -0.362158 1.556780
0.062454 -0.201886 1.468330
-0.035318 -0.350571 1.112467
0.242352 -0.067574 1.367992
0.119582 0.158169 0.899948
-0.050724 -0.285371 1.002451
0.128984 0.158200 1.037482
0.233893 -0.077361 1.363884
-0.021643 -0.195022 1.211277
-0.012449 -0.358210 1.124656
0.391780 -0.077078 1.361537
0.100814 -0.361589 1.556356
0.117992 0.155414 0.899880
-0.174753 -0.115118 1.306018
0.002339 -0.424885 1.081920
-0.047354 -0.275093 1.131727
0.128429 0.157828 1.037404
0.235103 -0.076659 1.364250
0.399400 -0.199457 1.431679
-0.045714 -0.421621 1.006444
0.134309 0.166997 1.038180
-0.028656 -0.343413 1.114109
0.393922 -0.074733 1.362648
-0.007824 -0.268008 1.208768
0.291805 -0.107492 1.418866
0.380818 -0.225060 1.462798
0.435574 -0.166761 1.405810
-0.046045 -0.274139 1.131830
-0.027947 -0.343400 1.114649
0.459169 -0.110383 1.337824
0.107649 0.213239 0.868737
0.111912 0.144585 0.900323
0.231381 -0.080526 1.361686
0.040063 -0.376768 1.513152
0.466518 -0.104089 1.340925
0.394212 -0.074690 1.362157
-0.029740 -0.345142 1.114342
-0.186187 0.035903 0.965213
-0.165208 -0.003752 1.160970
-0.007546 -0.381428 1.112982
-0.060772 -0.235710 1.060037
0.230085 -0.081125 1.361356
0.393052 -0.076015 1.361508
0.056537 0.169767 0.900413
-0.005409 -0.265109 1.209111
0.400547 -0.109797 1.376375
0.111629 0.142882 0.900239
0.238865 0.211348 0.917535
0.229982 -0.081851 1.361651
-0.008830 -0.377373 1.543867
0.058367 -0.358902 1.531185
-0.059845 -0.223392 1.105453
0.462765 -0.107220 1.339424
0.136331 -0.435425 1.138267
0.341057 -0.259074 1.495944
0.227223 0.192413 0.919387
-0.003872 -0.430393 1.080899
0.228138 -0.083458 1.360774
-0.305643 -0.008903 0.995345
0.461004 -0.109103 1.339328
0.080585 -0.268959 1.513288
0.226630 0.191964 0.919734
-0.164208 0.001394 1.161783
-0.002422 -0.428565 1.081634
0.396194 -0.114083 1.374393
-0.319403 -0.058199 0.992705
0.459929 -0.111117 1.338377
-0.014546 -0.324589 1.149498
0.013008 -0.434233 1.102327
0.102355 -0.272376 1.510118
-0.168247 -0.007377 1.160686
0.429844 -0.172087 1.405325
0.028339 -0.354506 1.506045
0.005761 -0.380871 1.548578
0.118379 -0.345191 1.520588
0.101514 -0.360623 1.557156
-0.061900 -0.237506 1.060224
0.411264 -0.130100 1.369459
-0.017120 0.070320 1.112516
0.190383 -0.161233 1.452815
0.099292 -0.362961 1.555079
-0.030485 -0.343323 1.114369
0.267487 -0.132706 1.440532
-0.009324 -0.384638 1.111072
-0.024350 -0.163493 1.259383
0.394025 -0.178384 1.403731
0.338151 -0.109956 1.429367
0.338011 -0.109218 1.428855
-0.070621 -0.169576 1.403668
0.145749 -0.235037 1.507506
-0.061140 -0.208305 1.115964
0.207109 -0.301005 1.494954
-0.094752 -0.375021 1.519931
-0.060760 -0.208405 1.115799
0.022210 -0.239843 1.241888
0.021273 -0.241700 1.240467
-0.055129 -0.126355 1.239994
0.064473 0.123624 0.970177
0.251026 -0.142224 1.448617
0.341119 -0.177676 1.442168
-0.043164 -0.418075 1.007225
-0.061105 -0.190848 1.143875
-0.043289 -0.417975 1.007376
-0.114145 -0.110338 1.310952
-0.046445 -0.386030 0.999206
0.333395 -0.182442 1.438724
0.231565 -0.223577 1.479702
0.336600 -0.180318 1.441342
-0.052165 -0.386599 0.964031
0.146366 -0.298302 1.505139
0.172431 -0.470266 1.126306
-0.174932 -0.117435 1.307076
0.274306 -0.260641 1.475619
0.056643 0.209836 1.241908
-0.158326 0.013711 1.163079
-0.286539 0.049185 0.983087
-0.235826 0.098311 0.942738
0.092940 -0.354363 0.857796
0.147300 -0.233310 1.507504
0.075321 -0.207284 1.463941
-0.028367 -0.343498 0.881882
0.118558 0.213137 0.966011
0.032159 -0.202635 1.273318
-0.085595 0.113660 1.048957
-0.228672 0.016256 1.104228
-0.001369 -0.368688 1.550950
0.169822 0.291372 0.857397
0.510408 -0.194666 1.531164
0.435155 -0.086891 1.290410
0.384631 -0.083848 1.359889
0.062258 -0.299922 1.212058
0.054018 -0.417920 1.135049
0.237223 0.209306 0.915105
-0.234134 0.071327 0.981448
-0.141161 0.101217 0.920176
-0.098718 0.152235 0.932059
0.055794 0.209235 1.241821
-0.036325 0.033417 1.206001
-0.286006 0.050303 0.983110
-0.232307 0.110060 0.942140
-0.186088 -0.501709 0.893005
-0.031834 -0.347290 0.882740
0.085572 -0.361350 0.859326
-0.057927 -0.345327 1.051020
0.077690 -0.204669 1.465910
0.071597 -0.359372 1.555529
-0.031863 -0.209167 1.208710
0.153772 -0.345711 1.557708
0.121630 0.218763 0.965925
-0.084580 0.115818 1.049055
0.165429 0.284185 0.858253
-0.015105 -0.389591 1.117241
-0.021084 0.148059 0.915703
0.098604 -0.350999 1.535997
0.018527 -0.244045 1.240940
0.052023 -0.419802 1.134569
0.002945 -0.363237 1.554708
0.381803 -0.086550 1.358804
0.367204 -0.119385 1.401794
0.006348 -0.324845 1.181378
0.424885 -0.174886 1.403706
-0.291116 0.052476 0.993630
-0.140515 0.103291 0.920047
-0.098259 0.153495 0.931996
0.052164 0.201506 1.240218
0.154373 -0.119389 1.379908
0.088577 -0.363729 0.865327
-0.287448 0.046705 0.983083
-0.057167 -0.344495 1.051054
-0.038909 -0.304647 0.954249
-0.096899 -0.441217 0.973215
0.133596 0.239419 0.965400
0.152242 -0.347675 1.556026
-0.007482 -0.382267 1.112602
0.219649 0.255882 0.890011
-0.217277 0.032277 1.117987
-0.000906 -0.369098 1.550525
0.052761 -0.419224 1.135209
0.387983 -0.080490 1.360899
0.020215 -0.317422 1.187391
-0.295252 0.035900 0.993448
-0.037066 0.031554 1.205606
0.060537 -0.380056 0.866647
-0.003572 -0.342397 0.869339
-0.287241 0.046928 0.983105
0.818857 0.871663 1.009938
-0.000290 -0.425956 1.082169
-0.064498 0.142303 0.914872
0.299835 -0.259474 1.470552
0.495173 -0.209857 1.536595
0.274161 -0.106361 1.397863
0.124653 0.225119 0.965937
-0.180255 0.081457 1.023101
-0.001303 -0.369116 1.550466
-0.082765 0.119849 1.049244
0.140054 0.268098 0.861258
0.524681 -0.184405 1.539067
0.220130 -0.099170 1.379115
0.056916 -0.305346 1.210804
-0.005915 -0.163471 1.273275
-0.008544 -0.182627 1.266173
0.021128 -0.216166 1.269917
0.419499 -0.179858 1.401070
-0.137356 0.110481 0.919522
0.059978 -0.207081 1.464979
0.050840 -0.378155 0.864360
0.196728 -0.270954 0.847871
0.075033 -0.142358 1.367768
-0.007185 -0.432752 1.081401
-0.277614 0.084377 0.982446
-0.056581 -0.343626 1.051171
-0.038874 0.169910 0.907696
-0.039827 -0.335166 1.085805
0.059173 0.177897 1.028636
0.113320 0.202635 0.968262
0.146131 0.278049 0.860037
0.495382 -0.206334 1.524749
0.000172 -0.366752 1.551531
0.052301 -0.419593 1.135141
-0.017951 -0.490180 1.075136
0.266968 -0.092423 1.379960
-0.080657 0.126560 1.049194
0.055970 -0.306321 1.210513
0.036961 -0.364528 1.167415
0.087775 0.187636 0.956972
0.098371 -0.351869 1.535545
0.281504 -0.293885 1.529102
-0.136596 0.110856 0.919623
-0.195387 0.078282 0.955143
0.059819 -0.491284 1.108463
0.074648 -0.141978 1.367991
0.095713 -0.346756 0.859200
-0.285546 0.050756 0.983155
0.221257 -0.147154 1.448148
-0.060521 0.203354 0.869314
-0.047324 0.152287 0.909091
-0.057590 -0.344563 1.051193
-0.038076 -0.218056 1.206662
0.124220 0.222935 0.967294
-0.045989 -0.272945 1.132398
-0.010878 -0.317373 1.157954
0.380290 -0.225485 1.464050
0.020816 -0.316563 1.187580
0.053796 -0.308505 1.209876
-0.009272 -0.386444 1.125722
0.061703 -0.280521 1.226711
-0.079605 0.127120 1.049593
-0.030263 -0.173762 1.257464
0.015487 -0.432045 1.103605
0.000885 -0.365427 1.552773
0.151786 -0.284433 1.507319
0.263878 -0.300808 1.530233
-0.174736 0.074865 0.962330
0.056850 0.210068 1.241950
0.110351 -0.307582 0.845967
0.076988 -0.369620 0.865507
0.076245 -0.236027 0.960594
-0.058453 -0.345835 1.051023
-0.036187 0.175345 0.907248
0.001816 -0.424043 1.082387
-0.102812 -0.546566 1.054219
0.487254 -0.063768 1.317810
-0.049497 -0.278922 1.131042
0.117547 0.212190 0.967817
0.378706 -0.226976 1.463097
0.491320 -0.209041 1.523001
-0.171549 0.103846 1.023821
-0.058386 -0.203258 1.116517
-0.060433 -0.234504 1.059989
-0.036141 -0.352840 1.096168
-0.009406 -0.386966 1.125487
-0.082477 0.120956 1.049312
-0.015704 0.189969 0.969157
0.001356 -0.257206 1.209926
0.058596 -0.283909 1.225636
0.022844 -0.216610 1.269001
0.058651 -0.358226 1.522756
0.444704 -0.156000 1.411208
0.095424 -0.354811 1.533089
-0.233631 0.018399 0.997750
-0.202849 0.057236 0.955959
-0.174507 0.075213 0.962317
0.259364 -0.273215 1.485554
-0.198678 0.100557 0.932219
-0.060464 0.111679 1.078316
-0.037723 -0.354235 0.883959
0.061201 -0.368136 0.862121
0.084010 -0.243928 1.499046
-0.009144 -0.436473 1.079743
-0.007625 -0.458645 1.064778
0.077157 -0.353519 1.560981
-0.285894 0.051678 0.983037
-0.066087 0.191766 0.870635
0.125761 -0.445803 1.136893
-0.050793 -0.279773 1.131051
-0.057501 -0.202297 1.116542
-0.061651 -0.236064 1.059904
0.063330 0.184864 1.028746
0.116918 0.212443 0.968045
-0.240392 0.011764 1.096541
-0.217288 0.034494 1.118527
-0.170728 0.106626 1.023886
-0.026978 -0.340929 1.096308
0.098101 -0.352232 1.535245
-0.082975 0.119716 1.049249
-0.011415 0.200401 0.969034
-0.027032 -0.168913 1.259004
0.023635 -0.214606 1.269816
0.384431 -0.084568 1.357718
0.011581 -0.436081 1.103150
-0.019151 -0.491249 1.074974
0.010759 -0.327561 1.184392
0.007947 -0.374369 1.131641
-0.234491 0.017288 0.997721
0.280605 -0.294370 1.528757
-0.088122 0.177069 0.931353
-0.058302 0.115838 1.078603
0.105603 -0.337195 0.857261
0.005378 -0.331937 0.867554
0.019747 -0.406535 1.050415
-0.007590 -0.459115 1.064457
-0.068868 -0.410854 0.965100
-0.276383 0.087366 0.982476
-0.256444 0.096544 0.957186
-0.050668 -0.196709 1.181578
-0.030383 -0.206014 1.209888
0.126779 -0.444925 1.137167
0.074640 0.205917 1.029359
0.065268 -0.365779 1.552038
-0.047511 -0.213828 1.171650
-0.047866 -0.276957 1.131366
-0.041302 -0.337002 1.086175
-0.081114 0.123517 1.049415
0.021316 0.267079 0.967324
0.015902 -0.369385 1.539291
0.064383 -0.352378 1.534652
-0.057143 -0.201657 1.116717
0.381041 -0.088729 1.355810
0.019930 -0.317066 1.186679
0.007659 -0.374645 1.131591
-0.240975 0.008505 1.096273
-0.009208 -0.266565 1.188523
0.026311 -0.305636 1.203421
0.019284 -0.220998 1.267491
-0.160169 0.011405 1.162673
-0.064943 0.102255 1.077625
-0.163032 0.004164 1.162431
-0.132243 -0.008901 1.190371
0.062896 -0.366401 0.861827
0.137375 -0.317913 0.855613
