ply
format ascii 1.0
comment made by Taylor Dixon
element vertex 1694
property float x
property float y
property float z
end_header
-0.397199 -0.065993 1.049767
0.086973 0.027205 0.661157
-0.032887 -0.291159 0.560018
-0.000488 0.007104 0.604177
-0.032366 -0.291048 0.562732
-0.037974 0.003851 0.652121
0.032338 -0.003732 0.641909
0.054175 -0.149694 1.195710
-0.086844 -0.014695 0.733980
-0.289217 -0.023042 0.735447
-0.289020 -0.023581 0.734774
0.064418 0.015068 0.812800
0.051117 -0.153735 1.179909
0.052862 -0.152496 1.189064
0.053852 -0.151496 1.196242
-0.303180 -0.093031 0.778266
0.260163 -0.010348 0.933869
-0.232389 0.003263 0.701120
-0.302399 -0.094335 0.774390
-0.182513 0.010145 0.724111
0.052961 -0.153507 1.186518
-0.122102 -0.028662 0.797553
0.052507 -0.153775 1.184470
0.095939 -0.175045 1.177672
0.048485 -0.039231 1.026354
0.104860 -0.111120 1.104569
-0.136256 -0.071028 0.745117
0.106581 -0.111408 1.105834
-0.132926 0.030878 0.683907
-0.136687 -0.067585 0.756356
0.141151 0.035137 0.646765
0.140446 0.034257 0.645212
0.200891 -0.008259 0.933992
-0.261772 -0.214337 1.254808
0.117711 -0.083789 1.027399
0.011869 0.005784 0.626941
0.105372 -0.111646 1.104664
-0.017445 -0.227888 0.582439
-0.286503 -0.013313 0.687265
0.186224 -0.014561 0.877395
0.149081 0.042498 0.657576
-0.031746 -0.263383 0.564300
0.057125 -0.043206 1.034447
0.109346 -0.098050 1.073192
0.127255 0.016615 0.646596
-0.124765 0.035459 0.679469
0.033038 0.004188 0.647236
-0.261695 -0.216069 1.217071
-0.117108 -0.112866 0.906512
0.033129 0.004573 0.647426
-0.172881 -0.121385 0.920995
-0.148654 0.024947 0.707371
-0.302015 -0.095042 0.769934
-0.273016 -0.024999 0.704812
-0.077991 0.032865 0.681853
-0.148069 0.038693 0.682341
1.343358 1.025076 2.444340
-0.148421 0.037265 0.681231
0.080673 -0.045127 0.973132
-0.242522 -0.077846 0.753337
0.150303 -0.109043 1.123559
-0.242986 -0.076649 0.755572
0.146100 -0.112321 1.108152
0.153299 -0.094587 1.030653
-0.262768 -0.213450 1.263945
-0.183459 -0.133980 0.812403
-0.305376 -0.118434 0.798146
-0.286635 -0.011607 0.690179
0.064440 0.014918 0.813063
-0.261158 -0.214973 1.243472
0.224000 -0.012909 0.891897
0.113839 -0.094123 1.086477
0.108009 -0.110044 1.111356
-0.265018 0.018176 0.649127
-0.286819 -0.011189 0.691208
0.114126 -0.087307 1.013596
0.110915 -0.096424 1.077561
0.145157 0.038420 0.651494
0.109120 -0.109530 1.115702
-0.237107 -0.138745 0.794353
-0.286421 -0.013621 0.687022
0.110131 -0.097067 1.074741
0.109666 -0.109053 1.117487
-0.173472 -0.120932 0.922748
-0.262470 -0.213620 1.262628
0.120489 -0.080936 0.986436
-0.399561 -0.282183 1.382292
0.120571 -0.081263 0.986975
-0.401750 -0.282392 1.390304
-0.036253 -0.059166 0.779105
-0.222859 -0.052037 0.797647
0.166034 -0.019815 1.052398
-0.092997 0.014085 0.695666
0.146135 -0.112372 1.109071
0.055968 -0.104477 1.130407
-0.051422 0.014909 0.693229
0.243052 -0.006671 0.936742
-0.179589 -0.150445 0.868180
0.050452 -0.008628 0.647605
0.153337 -0.127996 1.274720
-0.025042 0.013159 0.790302
-0.246855 -0.205904 1.271231
-0.333477 -0.196449 1.271872
-0.326468 -0.231556 1.284907
-0.123541 -0.065557 0.760006
0.159948 -0.124769 1.296737
0.249045 -0.002648 0.947869
0.105473 -0.089905 1.005021
-0.341149 -0.189998 1.338573
-0.052383 0.017281 0.580615
-0.036979 0.003602 0.785228
-0.122986 -0.065421 0.761063
-0.135103 -0.066054 0.759419
-0.179639 -0.152065 0.860420
-0.124477 -0.125044 0.845831
-0.173896 -0.124159 0.906288
-0.047417 0.027793 0.595885
-0.232765 0.013686 0.696061
-0.296930 -0.197032 1.137339
-0.051080 0.020204 0.585528
-0.080074 0.055652 0.661740
0.157414 -0.125670 1.286492
-0.148725 0.014228 0.706948
0.225795 -0.012376 0.895037
-0.035031 0.007078 0.793718
0.024482 0.001199 0.672122
0.110265 -0.107830 1.120077
0.146482 -0.131655 1.249594
-0.148414 0.017063 0.712360
-0.000637 0.008097 0.577699
-0.048954 0.025174 0.592490
-0.059873 0.008707 0.610142
0.023899 0.000112 0.671144
-0.055324 0.008785 0.680465
-0.013802 0.006122 0.590042
-0.038855 0.000470 0.777315
0.084199 0.023288 0.654380
-0.122000 -0.066354 0.757373
0.151232 -0.128400 1.265307
-0.034563 0.008294 0.795139
-0.053444 0.015748 0.579014
-0.299289 -0.195486 1.150851
-0.421164 -0.282262 1.523297
0.024366 0.001079 0.672574
-0.031807 -0.072477 0.839218
0.148354 0.041638 0.656071
0.002313 0.012272 0.584278
0.187208 -0.015289 0.878944
-0.048370 0.027343 0.596054
-0.260615 -0.216979 1.217275
-0.054866 -0.066115 0.780606
-0.121932 -0.028369 0.798485
-0.231513 0.000989 0.697507
-0.058624 -0.072699 0.781530
0.110431 -0.088059 1.010294
0.080874 -0.028090 0.936318
0.077697 -0.030311 0.925999
0.082082 -0.081523 1.103569
-0.301660 -0.029533 0.751763
0.155944 -0.093774 1.036463
0.154231 -0.093431 1.033689
0.020849 -0.006830 0.699402
0.020348 -0.007004 0.699637
-0.069165 -0.098442 0.790981
-0.069190 -0.098750 0.790285
-0.081219 -0.006660 0.719057
0.020983 -0.006744 0.699647
-0.149735 -0.253541 0.623502
-0.150131 -0.253880 0.622339
-0.415475 -0.281820 1.492918
-0.237065 -0.137928 0.797741
0.250166 -0.003807 0.947908
-0.223328 -0.054368 0.791234
-0.149924 -0.253797 0.621965
-0.332844 -0.197322 1.264536
-0.237205 -0.137924 0.798105
0.054133 -0.046128 1.024787
-0.149966 -0.253857 0.621027
0.110928 -0.089741 1.004724
0.014708 -0.175808 0.604966
-0.415743 -0.282410 1.494416
-0.181192 0.024131 0.704212
0.031193 -0.112446 0.609187
-0.237571 -0.137226 0.800675
-0.122671 -0.067837 0.753224
-0.124694 -0.126243 0.843416
-0.244801 -0.207804 1.237450
-0.122481 -0.068348 0.751691
-0.124907 -0.127179 0.840802
-0.175280 -0.129113 0.888350
-0.174584 -0.126602 0.899323
-0.077096 0.033101 0.682945
-0.014835 -0.291461 0.601154
-0.135525 -0.066498 0.758683
0.129398 -0.004219 0.783577
0.020149 -0.007166 0.698494
-0.065171 -0.277225 0.618046
-0.136062 -0.066961 0.758046
-0.070764 0.041741 0.695829
0.139852 -0.074929 0.967981
-0.165898 -0.285757 0.653866
-0.066335 -0.277106 0.615927
-0.175825 -0.127684 0.893666
0.162240 -0.021949 1.042305
-0.237168 -0.137038 0.800667
-0.014048 -0.291535 0.602462
0.145128 -0.071843 0.980856
0.129359 -0.004238 0.784134
-0.296829 -0.083033 0.790222
-0.257612 -0.138031 0.801810
-0.015630 -0.291539 0.599083
-0.136688 -0.066973 0.756389
0.147105 -0.070416 0.981228
-0.178019 0.031140 0.695960
-0.015432 -0.291490 0.600817
-0.173449 -0.123489 0.909202
0.132841 -0.000623 0.791543
-0.287591 -0.006611 0.701073
0.146826 -0.070094 0.981505
0.172901 -0.084749 1.030431
0.108608 -0.097536 1.071280
-0.024566 0.013538 0.791093
0.075723 -0.068321 1.067990
-0.147047 0.024815 0.707647
0.018466 0.006697 0.629696
-0.181245 0.022274 0.701278
-0.181702 0.021312 0.699554
0.121268 -0.080493 0.988415
-0.162135 0.037374 0.691408
-0.132362 0.031163 0.684028
0.023467 -0.000462 0.669797
0.101804 0.008548 0.820367
0.162756 -0.091421 1.009041
0.005074 0.015996 0.589191
0.016909 -0.189070 0.625615
-0.025824 -0.263594 0.587995
-0.081292 -0.007864 0.716611
0.006247 0.018596 0.591505
-0.023654 -0.262631 0.592154
-0.081626 -0.007347 0.717765
-0.136497 -0.065963 0.758680
-0.024636 -0.262950 0.589911
-0.024571 -0.262541 0.590651
0.018034 0.016407 0.588385
-0.005353 0.017839 0.605845
-0.091325 -0.061341 0.794172
0.081091 -0.027356 0.937545
-0.033420 -0.033824 0.784585
0.174557 -0.016437 1.032209
-0.047468 0.028427 0.596561
-0.063679 0.017800 0.609054
0.095318 0.001835 0.807277
0.024020 0.000676 0.671543
-0.013254 -0.291381 0.605247
-0.121494 0.039358 0.682749
-0.077696 0.002314 0.734664
0.098430 -0.077729 1.009993
-0.226573 -0.179822 0.944756
0.153313 -0.094173 1.033562
-0.038720 -0.001977 0.687912
-0.089881 0.043465 0.638012
-0.084592 -0.009290 0.726789
-0.182281 0.021583 0.699859
-0.288630 -0.208559 1.056254
-0.261066 -0.206801 1.284805
-0.261155 -0.210279 1.256204
-0.147998 0.021018 0.702996
0.044649 0.031946 0.587079
-0.158824 0.020745 0.708004
0.103136 0.003444 0.824600
0.161444 0.053140 0.670835
0.068118 0.015562 0.816058
-0.325953 -0.245794 1.200291
-0.197071 -0.209740 1.133129
-0.320912 -0.233776 1.231296
-0.326121 -0.245490 1.203075
0.143188 -0.014875 0.905908
-0.133876 0.031898 0.685345
0.068812 0.016833 0.818027
-0.289184 -0.206209 1.069943
-0.179082 -0.154513 0.870582
-0.025381 0.012809 0.789835
0.093579 0.032680 0.668249
0.101437 0.003829 0.823596
0.160374 0.052366 0.670932
-0.148337 0.038017 0.681720
-0.120870 -0.026944 0.801262
-0.082517 -0.009781 0.714648
-0.289586 -0.205854 1.072540
-0.245102 -0.205101 1.248247
-0.197072 -0.209067 1.137621
-0.197044 -0.208922 1.137598
0.162099 0.053475 0.672246
-0.121932 -0.029537 0.796226
-0.196848 -0.209121 1.137879
-0.059945 0.025749 0.618634
-0.197260 -0.209642 1.134815
-0.035151 0.001943 0.693465
0.093372 0.033442 0.680062
0.145710 -0.071226 0.981730
-0.135169 -0.067916 0.755700
-0.025029 -0.263565 0.588625
0.166225 -0.088718 1.016810
-0.290452 -0.205635 1.073762
0.139667 -0.075966 0.968526
-0.084965 -0.010203 0.725673
0.012647 0.006478 0.627648
0.081810 -0.027798 0.936557
-0.055812 0.010413 0.613514
0.082686 -0.026750 0.939044
0.012862 0.006898 0.628589
0.109914 -0.087418 1.013701
-0.120958 -0.028195 0.801766
0.057970 -0.023086 0.900811
-0.150764 0.023332 0.701865
0.083918 0.021640 0.657564
0.082888 0.020541 0.655104
0.083804 0.021666 0.657486
-0.136302 -0.128707 0.824530
-0.040865 -0.268157 0.561564
0.049034 0.039820 0.577513
0.131559 -0.015101 0.916230
0.106101 -0.016998 0.805599
-0.046931 -0.004549 0.717128
-0.041325 -0.268223 0.560831
-0.060690 0.022682 0.615819
-0.085606 -0.011642 0.724016
-0.132223 -0.122844 0.842144
-0.040214 -0.267718 0.563284
-0.072138 0.037401 0.691877
-0.039662 -0.267493 0.563995
-0.050012 -0.264338 0.567816
-0.026404 0.011595 0.787985
-0.034176 -0.003339 0.789907
-0.065501 0.011365 0.605189
-0.049081 -0.008042 0.711532
-0.040027 -0.267618 0.563498
-0.059460 0.024717 0.617218
0.252255 -0.021632 1.086890
-0.132677 -0.123449 0.839630
-0.072630 0.036243 0.690512
-0.133629 -0.124864 0.835898
-0.042767 -0.268294 0.558831
-0.180612 0.024454 0.705225
-0.061643 0.019605 0.611848
-0.039522 -0.266847 0.564371
-0.059967 0.024338 0.616989
-0.113724 -0.063419 0.734884
-0.037708 0.015915 0.556421
-0.132881 -0.124447 0.837087
-0.071746 0.040026 0.693514
0.070491 0.016311 0.818188
0.112256 -0.011289 0.814652
0.033939 -0.110622 0.612118
0.006261 -0.192085 0.595999
-0.043757 0.034856 0.602851
0.073987 0.008416 0.829946
0.073723 0.008670 0.829838
-0.145227 0.023992 0.745820
-0.047675 -0.006827 0.713398
-0.108095 -0.056672 0.737736
0.004489 0.015775 0.588911
3.186498 1.669194 3.358631
3.182334 1.672088 3.361173
3.108304 1.627099 3.288175
3.080090 1.609056 3.261633
-0.022561 0.014288 0.600777
3.153474 1.653143 3.326898
0.019293 -0.008786 0.696455
3.068903 1.603023 3.251654
-0.194995 -0.205470 1.154647
-0.296620 -0.165539 1.051349
-0.107087 -0.195629 1.143540
-0.276534 -0.134144 0.818655
0.103943 0.004123 0.825670
-0.224381 -0.135077 0.815304
0.066083 -0.019061 0.884007
-0.075210 -0.194046 1.113454
-0.047093 -0.263328 0.572447
-0.036858 -0.061279 0.775947
-0.170232 -0.120405 0.835142
0.102623 0.002967 0.824049
-0.113483 -0.003222 0.715479
-0.076080 -0.194800 1.110814
-0.047892 -0.263575 0.571449
-0.055733 -0.091203 0.777368
-0.173367 -0.131062 0.811977
0.138973 -0.016437 0.914396
-0.049207 -0.264030 0.569630
-0.055542 -0.089781 0.778657
-0.168793 -0.171201 1.010794
-0.287727 -0.164699 1.332711
-0.107407 -0.196393 1.140537
-0.196030 -0.207019 1.145113
0.104861 0.005798 0.827889
-0.074556 -0.193503 1.117838
-0.049419 -0.264109 0.569122
-0.148637 -0.165975 0.948031
-0.297042 -0.163899 1.057511
-0.055053 -0.066814 0.778905
0.174550 -0.022101 0.860819
-0.148892 -0.166039 0.946787
-0.296943 -0.163268 1.060200
-0.287874 -0.165940 1.324001
-0.106553 -0.195712 1.146545
-0.195771 -0.206074 1.149136
-0.074686 -0.193577 1.117020
-0.030085 0.029112 0.571965
0.085764 -0.041112 0.983315
0.187970 -0.011854 0.879875
-0.149564 -0.166932 0.943270
-0.055792 -0.091121 0.777439
-0.073220 -0.192642 1.123999
-0.007972 0.019146 0.577749
0.032326 -0.110335 0.611186
-0.049415 -0.264244 0.568786
-0.296862 -0.163327 1.060879
-0.106109 -0.195293 1.149576
-0.019240 0.024627 0.568633
-0.148912 -0.165511 0.948357
-0.107589 -0.197175 1.141717
-0.055294 -0.090802 0.778897
0.035931 -0.107658 0.615351
-0.162039 0.038582 0.692143
-0.106814 -0.196364 1.146602
-0.035150 0.019924 0.564364
-0.022991 0.017672 0.563315
0.020370 0.010527 0.623273
-0.161652 0.038691 0.692403
-0.076404 -0.068028 0.777660
-0.054447 -0.089369 0.781181
-0.034983 0.020471 0.564117
0.003238 0.013370 0.586688
-0.078570 -0.276102 0.581397
-0.223536 -0.190376 0.979487
0.214939 0.010394 0.942337
-0.020002 0.022958 0.566904
-0.149489 -0.165113 0.948214
-0.107833 -0.197121 1.141160
-0.082570 -0.012193 0.706326
-0.077920 -0.004069 0.715950
-0.187638 -0.070376 0.751774
0.056260 -0.023651 0.899256
-0.136793 -0.067683 0.755875
-0.037282 0.012332 0.598643
-0.253767 -0.094742 0.790540
2.469923 1.654646 3.029197
-0.294463 -0.081618 0.800006
3.230694 1.700258 3.400838
1.781475 1.036247 2.283315
-0.084467 -0.010195 0.725630
-0.074181 -0.065161 0.781798
-0.062690 -0.066389 0.782482
-0.063675 -0.068038 0.779840
-0.084567 -0.009410 0.727107
-0.063760 -0.068053 0.779865
-0.036616 0.013312 0.599438
-0.063895 -0.067854 0.779795
0.021463 -0.005989 0.699802
0.161822 0.053384 0.670898
-0.153707 -0.164305 0.948770
-0.106447 -0.195868 1.146686
0.004219 0.018707 0.564600
0.108393 0.007315 0.830664
0.005453 0.020252 0.565359
0.139208 -0.015721 0.915375
-0.065673 -0.281090 0.582599
0.139495 -0.015296 0.915724
-0.044871 -0.261717 0.577414
0.136326 -0.017455 0.911674
0.105355 0.007195 0.829579
-0.043866 -0.261239 0.578779
0.129304 -0.003403 0.783169
-0.350455 -0.037145 0.827570
-0.151592 0.021439 0.699381
0.008484 0.003107 0.648921
-0.064156 0.013124 0.606179
-0.022599 0.015893 0.589138
-0.294444 -0.081863 0.799480
-0.151351 0.021832 0.699827
0.128273 0.026019 0.781358
0.128921 -0.004123 0.782861
-0.350073 -0.037114 0.827485
0.056969 -0.023920 0.898826
0.064698 0.013624 0.812651
-0.287751 -0.099187 0.789774
-0.302703 -0.088350 0.798705
0.204981 -0.008983 0.933496
-0.085384 -0.010932 0.725321
0.020960 -0.006387 0.699024
0.130964 0.001182 0.786191
-0.302739 -0.088434 0.798733
0.062876 0.009400 0.808002
-0.169861 -0.160908 0.905709
0.008953 0.003327 0.649520
-0.119938 0.041857 0.665174
-0.102062 0.034587 0.678766
-0.127931 0.043295 0.673189
-0.349613 -0.038706 0.825031
-0.151562 0.021208 0.699452
-0.022003 0.014716 0.601637
-0.294386 -0.081499 0.800434
-0.338053 -0.026184 0.939072
-0.034465 0.002572 0.646922
-0.119672 0.042596 0.665357
-0.331652 -0.035941 0.830638
-0.021798 0.015065 0.601888
0.062724 0.008892 0.807564
-0.294551 -0.080942 0.801363
0.061075 0.007376 0.804544
0.008948 0.003222 0.649213
0.022642 -0.005888 0.711775
-0.119460 0.042703 0.665549
-0.336095 -0.038096 0.829223
-0.083170 -0.011689 0.712664
-0.257175 -0.139092 0.812858
0.051686 0.010991 0.780502
-0.100200 0.038713 0.682513
0.006974 0.001037 0.647351
-0.350166 -0.036571 0.827516
-0.063486 0.014253 0.607808
-0.119399 0.042568 0.665267
0.063525 0.009723 0.808771
-0.303602 -0.081166 0.811893
-0.257265 -0.137051 0.818014
-0.095254 -0.065713 0.781128
0.157245 0.049576 0.668514
0.024986 -0.003149 0.714883
-0.037142 -0.000617 0.644005
0.007510 0.001772 0.648374
0.019057 0.007780 0.629628
-0.056859 -0.093128 0.775533
0.055356 0.000105 0.648693
-0.260791 -0.202481 1.316773
-0.111662 -0.059966 0.739405
-0.022764 0.014329 0.587358
0.055907 -0.023634 0.898433
-0.034885 -0.005415 0.786823
-0.033279 -0.033734 0.785351
3.406812 1.812170 3.458628
3.865540 1.204492 3.674158
-0.034236 0.003995 0.647921
3.895430 1.213213 3.699973
0.051458 0.010508 0.779220
-0.098344 -0.011705 0.716625
-0.195612 -0.125747 0.789562
-0.035534 0.008677 0.736415
-0.129184 0.004510 0.714077
0.052784 0.012340 0.781193
-0.253258 -0.006978 0.701231
0.000900 0.020475 0.762908
-0.160988 0.043432 0.696729
-0.336807 -0.017299 0.758263
-0.333830 -0.026680 0.794849
0.052790 0.012178 0.781814
-0.214886 -0.082951 0.740038
-0.215014 0.013549 0.699204
-0.036076 0.007943 0.735293
0.034033 -0.003378 0.694410
0.017264 0.006877 0.620699
-0.336686 -0.016782 0.758619
-0.326883 -0.023522 0.781249
-0.214886 -0.083196 0.739613
-0.026801 0.003412 0.655118
0.036232 0.007467 0.656938
-0.214826 0.012140 0.697943
-0.333776 -0.027599 0.793443
-0.097589 -0.010113 0.718556
0.052733 0.011919 0.781321
-0.167125 -0.046615 0.838353
-0.214860 -0.082683 0.740505
-0.036074 0.008029 0.735320
-0.336745 -0.017764 0.757529
-0.129991 0.002549 0.712195
0.052198 0.011369 0.780761
-0.214819 -0.083216 0.739714
-0.161291 0.042309 0.695581
-0.326920 -0.023804 0.780549
-0.162901 -0.039230 0.850590
0.050415 0.009241 0.778234
-0.276683 -0.004424 0.714100
-0.252938 -0.006289 0.701491
0.015619 0.010804 0.599016
-0.277477 -0.008235 0.709900
-0.214664 -0.083031 0.740124
-0.259457 -0.006047 0.724526
-0.277206 -0.008737 0.709826
-0.326796 -0.023032 0.780856
-0.235136 -0.131684 0.823552
-0.161338 -0.037548 0.854450
0.095336 -0.004050 0.813903
-0.165482 -0.046390 0.839240
0.048066 0.028215 0.786430
-0.294398 -0.081220 0.800631
-0.304375 -0.110149 0.795383
-0.039646 0.017063 0.804134
-0.304427 -0.109908 0.795692
-0.039497 0.017154 0.804277
-0.039812 0.016423 0.803222
-0.304191 -0.108373 0.798675
-0.021977 0.004981 0.649959
0.135149 0.004353 0.790569
-0.040364 0.015729 0.802085
-0.194395 -0.133174 0.810040
-0.304532 -0.102358 0.811019
0.012384 0.020523 0.767954
-0.353280 -0.035052 0.827811
-0.111541 -0.059864 0.739418
-0.303767 -0.108147 0.798841
-0.193708 -0.132306 0.812409
-0.024672 0.001167 0.646500
-0.131034 0.038787 0.680402
-0.009988 0.013358 0.587662
-0.023119 0.003135 0.648495
-0.193513 -0.131384 0.814982
-0.193677 -0.131605 0.814224
-0.296689 -0.162739 1.064006
-0.193864 -0.131923 0.813633
0.009327 0.003653 0.650000
-0.008434 0.016084 0.589047
-0.063588 -0.068020 0.779961
0.025151 0.001794 0.690906
-0.022486 0.004332 0.649662
-0.022669 0.004759 0.650618
-0.197604 0.010766 0.735485
-0.196626 0.020283 0.750574
-0.196810 0.019546 0.750223
-0.172808 -0.174234 0.726487
-0.338409 -0.046804 0.900794
-0.276751 -0.003273 0.714477
-0.025477 -0.001046 0.644765
-0.308974 -0.012057 0.726044
-0.338413 -0.045278 0.903552
-0.143346 -0.058395 0.832635
-0.149532 0.036157 0.679034
-0.276907 -0.004429 0.713774
0.015204 0.004534 0.619375
-0.259618 -0.007717 0.722716
-0.338458 -0.049591 0.896042
-0.081696 -0.005975 0.730713
-0.391687 -0.026043 0.853958
0.134341 0.033324 0.790776
-0.149506 0.035921 0.678832
-0.392118 -0.022967 0.858895
-0.305795 0.003239 0.716098
-0.308900 -0.011024 0.727240
-0.338308 -0.030142 0.930870
-0.190135 -0.096733 0.724834
-0.035853 0.008260 0.736029
-0.032225 0.012877 0.741410
-0.302503 -0.087443 0.800509
0.037339 0.009070 0.658401
-0.277246 -0.005969 0.711854
-0.308943 -0.011982 0.725621
-0.358442 -0.041006 0.816202
-0.399716 -0.003729 0.840326
-0.214846 -0.082738 0.740461
-0.190059 -0.096140 0.725866
-0.286910 -0.145205 0.773867
-0.194479 -0.134614 0.807366
-0.036995 -0.061279 0.775881
0.134141 0.003837 0.789725
-0.391278 -0.028094 0.851211
-0.041576 0.003085 0.616128
0.005400 0.004374 0.629616
-0.358480 -0.039753 0.818045
-0.232322 -0.081007 0.753115
-0.338343 -0.050069 0.895277
-0.085044 -0.010898 0.724983
-0.237365 0.060955 0.723649
-0.195721 0.042079 0.705799
-0.388824 -0.031838 0.903399
-0.358297 -0.036414 0.823296
0.091185 0.031145 0.644291
-0.399661 -0.003544 0.840612
-0.232671 -0.082162 0.751420
-0.338267 -0.029251 0.932813
-0.188830 -0.093937 0.729147
-0.234825 0.061371 0.722774
-0.214570 0.014859 0.700811
0.056758 0.002667 0.649220
-0.399967 -0.002367 0.842097
-0.037013 0.006461 0.733640
-0.135700 -0.065536 0.758549
-0.214636 0.015858 0.701723
-0.191341 -0.000982 0.717605
-0.391460 -0.028943 0.849872
-0.389654 -0.027274 0.911565
-0.101842 0.034978 0.679853
-0.041991 0.002089 0.615203
-0.305621 -0.023074 0.779020
-0.308307 -0.012967 0.709456
-0.161913 0.040539 0.693985
-0.027716 0.005854 0.594873
-0.232954 -0.083202 0.749636
-0.036287 0.007367 0.734879
-0.394632 0.039819 0.808816
-0.137991 -0.068622 0.754191
-0.215203 0.013413 0.699089
-0.242907 0.035348 0.698879
-0.099375 0.040353 0.684117
-0.391725 -0.027832 0.851734
-0.040358 0.007456 0.595947
-0.306073 -0.025024 0.776515
-0.326803 -0.021207 0.783350
0.081294 0.021595 0.636895
-0.305264 -0.118813 0.780249
-0.034813 0.009453 0.736811
-0.394327 0.035072 0.803553
-0.404352 0.032874 0.812915
-0.212466 0.023076 0.708619
0.052731 -0.001157 0.645426
-0.334642 -0.035030 0.783373
0.085838 0.025581 0.639834
-0.394743 0.038834 0.807938
0.068175 0.013927 0.815112
-0.243893 0.028117 0.692684
-0.258494 0.007738 0.697370
0.028421 0.005471 0.693991
-0.391548 -0.029378 0.849262
-0.308347 -0.011891 0.710628
-0.039645 0.008815 0.596495
-0.042954 0.005817 0.581617
-0.260578 -0.009834 0.720462
-0.304127 -0.113191 0.790088
-0.254346 -0.170254 0.716192
-0.180312 0.039534 0.732511
-0.235695 -0.123159 0.810029
-0.344939 -0.020092 0.773955
-0.128715 0.041516 0.671952
-0.180415 0.039444 0.733003
0.003447 0.011234 0.599458
-0.252596 -0.096277 0.789066
0.001058 0.009026 0.597769
-0.073951 0.058576 0.685388
-0.120010 0.043349 0.666480
-0.119538 0.043814 0.666738
-0.072455 0.060984 0.688022
-0.119676 0.043485 0.666352
-0.072952 0.060555 0.687419
-0.039786 -0.002547 0.687268
-0.287565 -0.096350 0.795555
-0.039094 -0.002415 0.687556
-0.331430 -0.036000 0.830777
-0.287372 -0.095263 0.797180
-0.033529 -0.034510 0.784411
-0.062064 0.016088 0.607466
-0.291852 -0.004619 0.702756
-0.098750 0.037175 0.683495
-0.027928 0.005380 0.595780
-0.127996 0.042837 0.672437
-0.061857 0.010258 0.591000
-0.065519 0.012104 0.604434
-0.282951 0.055366 0.696624
-0.353751 0.004333 0.698377
-0.261650 0.008051 0.699976
-0.291459 0.000231 0.707393
-0.095970 0.043052 0.687766
-0.257061 -0.007698 0.696761
-0.022990 0.011321 0.599728
-0.064761 0.011748 0.605320
-0.282670 0.056594 0.697816
-0.307169 -0.131139 0.757203
-0.291417 0.000438 0.707675
-0.261619 0.008828 0.701050
-0.216486 -0.086349 0.734620
-0.129003 0.042129 0.683369
-0.099412 0.036792 0.682188
-0.020110 0.014674 0.602431
-0.231850 -0.079836 0.754193
-0.127953 0.042579 0.672383
-0.282436 0.058193 0.699153
-0.291288 0.000642 0.707900
-0.262436 0.003755 0.695978
-0.307804 -0.010248 0.710274
-0.115548 0.029387 0.634168
-0.111540 -0.000404 0.718861
-0.068037 0.067384 0.693626
-0.106515 0.059630 0.698998
-0.067968 0.067548 0.694070
-0.282637 0.055618 0.697101
-0.258924 0.005324 0.694423
-0.291615 -0.000091 0.707196
-0.232011 -0.080746 0.752998
-0.170476 -0.054210 0.826485
-0.282354 0.058971 0.699992
-0.068587 0.066534 0.693288
-0.306998 -0.140644 0.761681
-0.267870 0.034203 0.684193
-0.308230 -0.014031 0.707157
-0.113907 0.036677 0.634791
-0.040111 0.007430 0.595876
-0.353786 0.003067 0.697352
-0.267343 0.036204 0.686042
-0.261026 0.011394 0.703453
-0.291768 0.001284 0.708312
-0.128409 0.041802 0.682785
-0.058203 0.006739 0.676445
-0.250975 0.092713 0.662426
-0.276522 0.047180 0.706523
-0.292539 -0.004731 0.702080
-0.124238 0.049930 0.689756
-0.176403 0.036638 0.700865
-0.114229 -0.003823 0.714637
-0.283266 0.052474 0.694422
-0.247803 0.108297 0.673022
-0.267728 0.033224 0.683227
-0.025508 0.008459 0.803721
-0.071255 0.061999 0.690145
-0.292415 0.000142 0.707053
-0.114003 0.036360 0.634589
-0.064537 0.012614 0.606321
0.088797 0.028982 0.641896
-0.151364 0.021481 0.699271
-0.300003 0.003962 0.706306
0.014096 0.012296 0.574803
0.002640 0.021917 0.764721
-0.347065 -0.034009 0.797645
-0.040205 0.009194 0.584079
-0.171005 -0.053744 0.826910
-0.352173 -0.015735 0.775418
-0.395438 0.048222 0.817631
-0.128306 0.043350 0.684346
-0.346982 -0.034023 0.797473
-0.351972 -0.012296 0.779789
-0.307649 -0.001019 0.723862
-0.000998 0.011766 0.561057
-0.352288 -0.016086 0.774601
-0.039761 0.011138 0.572656
-0.334736 -0.027128 0.845834
-0.352119 -0.013403 0.777741
-0.050004 0.009834 0.547085
-0.017054 0.007887 0.558392
-0.039704 0.011265 0.572445
-0.334684 -0.027503 0.845125
-0.352001 -0.013238 0.778244
-0.346705 -0.034884 0.796382
-0.351885 -0.016252 0.774583
-0.305535 -0.121002 0.776400
-0.346621 -0.032850 0.799412
-0.099978 0.006201 0.728534
-0.040377 0.010663 0.571729
-0.108456 -0.007825 0.714089
-0.371556 -0.038285 0.808947
-0.042717 0.006060 0.581573
-0.351645 -0.014137 0.777224
-0.071488 -0.005529 0.710659
-0.335750 -0.037166 0.830232
-0.183174 0.016919 0.735911
-0.343237 -0.030735 0.825006
-0.023737 0.012547 0.585858
-0.294752 -0.081697 0.799931
-0.037457 0.016202 0.562271
-0.007826 0.016553 0.589727
-0.090928 0.040993 0.636768
-0.062706 0.080547 0.602607
-0.090781 0.041092 0.636490
-0.064237 0.077604 0.600505
-0.063445 0.078943 0.600447
-0.064422 0.077084 0.599187
-0.092110 0.039876 0.634966
-0.132841 0.050263 0.592943
-0.211862 0.031273 0.695833
-0.159875 0.041350 0.699600
-0.195456 0.044854 0.666411
-0.160444 0.045108 0.697962
-0.193640 0.050290 0.670839
-0.162818 0.039682 0.693382
-0.214416 0.014242 0.699587
-0.099621 0.038996 0.618772
-0.168391 0.027872 0.682968
-0.269257 0.023397 0.662321
-0.091012 0.040965 0.636181
-0.297053 0.085308 0.736817
-0.353518 0.010061 0.704011
-0.081681 0.065537 0.614882
-0.215447 0.012292 0.698230
-0.076989 0.073104 0.619914
-0.186076 0.005829 0.553602
-0.100013 0.038694 0.618019
-0.214238 0.016149 0.701777
-0.078303 0.070607 0.618355
-0.258949 0.005780 0.695130
-0.292678 -0.004627 0.702260
-0.101920 0.035266 0.616065
-0.154793 0.016263 0.565696
-0.075805 0.074255 0.620518
-0.270521 0.053511 0.655603
-0.089170 0.045005 0.638004
-0.113869 -0.002732 0.716165
-0.207737 0.046105 0.708695
-0.208295 0.040471 0.703820
-0.160465 0.015492 0.551636
-0.091360 0.040860 0.635479
-0.080984 0.066433 0.615923
-0.170146 0.024940 0.559010
-0.298235 0.073836 0.725893
-0.400724 0.006331 0.783913
-0.296696 0.090141 0.741051
-0.363132 0.005308 0.716314
-0.330700 -0.024992 0.776840
-0.272150 -0.013132 0.732933
-0.369175 -0.020106 0.748993
-0.361052 -0.040399 0.851289
-0.402147 0.014260 0.793390
-0.272763 -0.015709 0.729872
-0.040721 0.004258 0.617243
-0.132527 0.004481 0.710847
-0.159972 0.041333 0.699596
-0.404386 0.031331 0.813432
-0.369297 -0.018743 0.750574
-0.361123 -0.041296 0.849754
-0.319113 -0.073811 0.832223
-0.362648 0.001466 0.712347
-0.333894 -0.027253 0.794011
-0.271244 -0.008347 0.738571
-0.180466 0.039017 0.731874
-0.358095 -0.038607 0.819327
-0.361167 -0.041682 0.849264
-0.281183 0.066851 0.706102
-0.362818 0.005580 0.716002
-0.180481 0.038655 0.731495
-0.371327 -0.039658 0.807045
-0.362718 0.006516 0.717174
-0.357754 -0.039775 0.818061
-0.348437 -0.046842 0.813683
-0.361473 -0.038456 0.854508
-0.330166 -0.036848 0.784701
-0.400717 -0.000771 0.851887
-0.363418 0.002402 0.713225
-0.333477 -0.023627 0.798959
-0.328074 0.021908 0.639712
-0.363173 -0.001835 0.708916
-0.400636 0.010490 0.861535
-0.152272 0.031170 0.674511
-0.335416 -0.039751 0.827882
-0.367158 -0.026647 0.886691
-0.284228 0.010819 0.679877
-0.350666 -0.040563 0.823092
-0.353811 0.000580 0.694737
-0.398549 -0.005787 0.840210
-0.230866 0.009603 0.697904
-0.310087 -0.021333 0.772344
-0.335165 -0.034728 0.834387
-0.301247 0.056655 0.710548
-0.311192 -0.016643 0.725120
-0.358353 -0.036101 0.823816
-0.302117 -0.087188 0.800705
-0.330892 0.022198 0.638377
-0.362852 -0.000799 0.709997
-0.341158 -0.035056 0.681750
-0.380628 -0.042205 0.833155
-0.305564 -0.027277 0.773813
-0.311425 -0.018992 0.722656
-0.335363 -0.039089 0.828652
-0.240450 0.051233 0.702278
-0.183953 -0.013787 0.521962
-0.277260 0.038789 0.698854
-0.308101 -0.012518 0.708261
-0.349156 0.016818 0.662000
-0.392552 0.018626 0.784396
-0.305281 -0.022410 0.780167
-0.311599 -0.021009 0.719990
-0.336010 0.040859 0.618531
-0.330627 -0.020085 0.723542
-0.301049 0.059034 0.712545
-0.334389 -0.026144 0.795767
-0.216124 0.011894 0.697955
-0.139978 0.054100 0.761842
-0.427839 0.028764 0.696019
-0.346606 0.026844 0.692213
-0.366792 -0.023613 0.750795
-0.358127 0.000861 0.712893
-0.142633 0.049135 0.757743
-0.308338 -0.013748 0.707946
-0.312009 -0.025842 0.714911
-0.111714 0.039327 0.637129
-0.335622 0.040663 0.618695
-0.349415 0.020409 0.664832
-0.301388 0.056323 0.710195
-0.309374 -0.019801 0.701150
-0.312041 -0.023044 0.718050
-0.119770 0.040925 0.663555
-0.393216 0.021057 0.788570
-0.264338 0.028230 0.617729
-0.387180 -0.039717 0.859517
-0.259355 0.004408 0.694065
-0.407142 0.045315 0.832862
-0.382012 -0.049258 0.855025
-0.331070 0.021076 0.637302
-0.309972 -0.023525 0.769763
-0.330939 0.019654 0.636328
-0.391900 -0.039706 0.858067
-0.347434 -0.030971 0.802177
-0.405157 0.031405 0.815785
-0.267240 0.021716 0.651436
-0.366696 -0.024324 0.749760
-0.382946 -0.043146 0.864799
-0.367058 -0.018952 0.755660
-0.361654 -0.031340 0.819416
-0.383507 -0.041311 0.868222
-0.345126 0.025892 0.657552
-0.403820 0.032574 0.837560
-0.344977 0.025078 0.656930
-0.381926 -0.032267 0.848151
-0.345307 0.018694 0.651515
-0.267785 0.035554 0.685294
-0.189454 0.037075 0.767110
-0.193207 0.028209 0.758313
-0.357351 0.018394 0.710142
-0.401451 0.012793 0.813617
-0.401933 0.009787 0.857617
-0.197694 0.016229 0.746395
-0.318998 -0.068388 0.841061
-0.350041 -0.027778 0.693504
-0.357931 -0.034798 0.815941
-0.334708 -0.012141 0.813923
-0.302590 -0.089088 0.797517
-0.358535 -0.040705 0.817032
-0.318687 -0.070042 0.837940
-0.271547 0.048508 0.651705
-0.272382 0.043815 0.648339
-0.334350 0.014449 0.642032
-0.340653 -0.016300 0.700808
-0.349477 0.020389 0.664870
-0.327091 0.031918 0.648300
-0.351900 -0.027187 0.780717
-0.327150 0.031692 0.647911
-0.320787 -0.009599 0.714301
-0.341206 -0.034316 0.682096
-0.302131 -0.024792 0.767278
-0.371252 -0.040163 0.805909
-0.118841 0.041511 0.664364
-0.358140 -0.039441 0.818180
-0.353725 -0.001744 0.692768
-0.312420 -0.102212 0.525957
-0.353842 -0.005709 0.689150
-0.353800 -0.001961 0.692667
-0.054266 0.011349 0.682055
-0.124668 0.029522 0.664621
-0.326913 -0.027029 0.776741
-0.327025 0.031585 0.648058
-0.330694 -0.025048 0.776464
-0.330663 -0.025319 0.775945
-0.344914 -0.021462 0.771943
-0.181330 0.035705 0.727215
-0.129538 0.040429 0.671143
-0.336333 -0.038265 0.827637
-0.414738 -0.044091 0.921759
-0.111427 -0.060182 0.738642
-0.392944 -0.036440 0.862507
-0.038538 0.014016 0.562190
-0.415304 -0.042263 0.924862
-0.413327 -0.047085 0.916612
-0.082453 -0.010164 0.714030
-0.276999 -0.009877 0.707850
-0.413628 -0.045747 0.918870
-0.338882 -0.022944 0.945067
-0.413615 -0.045263 0.919773
-0.339309 -0.021846 0.946984
-0.303109 -0.080948 0.812204
-0.414253 -0.043790 0.921925
-0.398082 -0.006839 0.834954
-0.414418 -0.043273 0.922841
-0.368305 -0.023872 0.889699
-0.338708 -0.023223 0.945067
-0.344248 -0.024611 0.767490
-0.012717 -0.009875 0.706744
0.023034 -0.000406 0.669585
-0.305472 -0.027403 0.779091
0.036653 0.007504 0.657962
-0.361683 -0.035372 0.813259
0.025406 0.002348 0.672654
0.025269 0.001906 0.672125
-0.306028 -0.023493 0.778071
-0.305622 -0.030489 0.775009
-0.033512 0.003340 0.647314
-0.034438 0.001948 0.646233
0.090600 0.031514 0.667850
-0.034099 0.001950 0.646211
0.121334 -0.020568 0.792810
-0.304329 -0.031722 0.772561
-0.283428 -0.016615 0.728679
0.092268 0.032974 0.669516
-0.283377 -0.015801 0.729722
-0.283230 -0.017410 0.727089
-0.302019 -0.022825 0.769628
0.048968 0.007638 0.776358
-0.276642 -0.011067 0.706804
0.023009 -0.000424 0.669605
-0.320345 -0.009992 0.713102
-0.011314 -0.008392 0.708289
-0.320458 -0.009737 0.713393
-0.371660 -0.036918 0.810058
-0.336667 -0.013230 0.763365
0.165612 0.057308 0.675342
0.161261 0.053085 0.670969
-0.112963 0.046339 0.642802
-0.252445 -0.092108 0.796228
0.051599 -0.023841 0.895752
-0.061456 0.083002 0.604636
-0.392481 -0.037370 0.861528
0.170163 0.062955 0.680219
0.171884 0.065046 0.682806
0.021497 0.010135 0.581070
-0.254320 -0.010125 0.694149
0.139731 -0.016000 0.915757
-0.026138 0.012135 0.788860
0.105544 0.005765 0.828168
0.050977 0.010007 0.778438
-0.014658 -0.013426 0.701954
0.020452 -0.007293 0.697571
-0.048391 -0.006896 0.713752
0.022595 -0.004573 0.701172
-0.011382 -0.008230 0.708131
-0.065717 -0.094865 0.794498
-0.085135 -0.010579 0.725056
0.001761 0.011218 0.587135
-0.082445 0.044853 0.652398
0.080466 -0.039299 0.963685
-0.048784 0.025518 0.594937
0.021762 -0.007688 0.710178
0.081187 -0.037649 0.965886
-0.148902 0.016665 0.712462
-0.220645 -0.031833 1.647170
-0.128461 0.039088 0.669759
-0.153910 0.022708 0.708739
-0.154082 0.022783 0.708662
-0.065869 -0.093264 0.795820
-0.085300 -0.009674 0.727655
0.065987 0.016332 0.817439
-0.085235 -0.009765 0.727284
-0.050329 0.017896 0.588454
-0.056134 -0.068401 0.774542
-0.093904 0.037263 0.689064
-0.004029 -0.000459 0.576885
0.019184 0.004694 0.576007
-0.069226 -0.100797 0.778535
0.065784 0.016367 0.817450
0.020202 0.007236 0.578367
-0.068940 -0.100287 0.779979
-0.038968 0.005844 0.627794
-0.093809 0.036765 0.688539
-0.069157 -0.100554 0.779124
-0.111736 -0.061084 0.736172
0.066343 0.017045 0.818660
-0.093987 0.037823 0.689602
-0.084966 -0.009850 0.726615
0.027779 -0.030165 0.916115
-0.093768 0.039409 0.691318
0.003892 0.004040 0.549793
0.076876 0.000537 0.904148
0.066339 0.016738 0.818158
-0.111960 -0.060390 0.737627
0.003267 0.002655 0.548884
-0.067792 -0.098458 0.786075
-0.038874 0.006061 0.627619
-0.018145 0.010356 0.555305
0.022877 -0.003455 0.703071
0.002516 0.001943 0.548170
-0.063312 0.103546 0.635728
-0.094011 0.039098 0.690505
-0.081666 -0.007863 0.716384
-0.111908 -0.060325 0.737880
0.005272 0.003069 0.637224
-0.081992 -0.008729 0.715587
-0.112106 -0.060953 0.736706
-0.081967 -0.007966 0.716737
-0.012491 -0.008701 0.707731
0.009897 0.001024 0.622640
-0.081598 -0.007322 0.717305
0.106090 0.014143 0.839194
0.100415 0.007754 0.828092
0.104458 0.012938 0.836533
-0.134452 0.030594 0.683949
-0.113798 0.034435 0.664336
-0.114275 0.033205 0.663099
-0.025727 0.012727 0.789260
-0.026145 0.012129 0.788441
0.045683 0.013374 0.643842
-0.033510 -0.114171 0.919717
-0.081442 -0.005833 0.720405
0.162477 0.053967 0.671857
0.021457 -0.005711 0.699907
-0.048398 -0.007894 0.712647
-0.112788 -0.001356 0.718409
-0.134635 0.031811 0.686673
-0.203918 0.016940 0.704067
0.021524 -0.005444 0.700498
-0.017273 0.009761 0.567934
-0.030166 0.012416 0.557437
-0.055876 -0.066952 0.778000
0.065593 0.016321 0.817021
-0.184535 0.022352 0.702811
-0.153978 0.023725 0.710331
-0.017159 0.010203 0.568345
-0.030291 0.012120 0.556966
0.064826 0.015156 0.814772
-0.048578 -0.006997 0.714167
0.021629 0.005419 0.605411
-0.153610 0.023005 0.708960
-0.036805 -0.060654 0.777320
-0.048292 -0.006996 0.714023
0.065363 0.015859 0.815956
0.021129 0.004893 0.604631
-0.048294 -0.007387 0.713317
-0.005067 0.011536 0.556730
-0.037667 0.012448 0.569444
0.021213 0.004910 0.604819
-0.134710 0.032345 0.687266
-0.038313 0.010858 0.567870
-0.055948 -0.068270 0.775096
-0.134723 0.031408 0.685979
-0.029860 0.013449 0.558232
-0.069073 -0.100291 0.780337
0.065411 -0.019841 0.882226
-0.037993 0.011429 0.568937
-0.010995 0.003478 0.625879
-0.030348 0.012534 0.557389
-0.037506 0.013484 0.570932
0.073078 0.006624 0.825104
-0.188778 0.022798 0.733833
-0.231879 0.000837 0.701341
-0.231885 0.000726 0.701177
-0.039881 0.002446 0.652633
-0.256245 -0.006558 0.698808
-0.254804 -0.008038 0.697828
-0.012014 -0.008154 0.708177
0.019682 0.006433 0.577619
-0.084971 -0.009956 0.726442
0.019653 0.006469 0.577677
0.017991 0.002917 0.574400
0.074145 -0.011154 0.870196
-0.204157 0.015260 0.700280
-0.055427 0.009590 0.616034
0.085233 0.051569 0.578256
0.085228 0.051546 0.578136
-0.125166 0.031182 0.679266
0.065637 -0.019366 0.882063
0.065259 -0.019655 0.882012
-0.013204 -0.009760 0.705395
-0.282127 0.016012 0.695457
-0.281530 0.015334 0.693971
-0.028785 0.010535 0.595928
-0.029846 0.012514 0.557653
-0.029612 0.013277 0.558528
0.071439 0.005472 0.825898
-0.033127 0.003390 0.625326
-0.029915 0.010440 0.568564
-0.029888 0.010566 0.568673
0.070808 0.004930 0.825293
-0.012384 0.001794 0.611908
-0.030205 0.010502 0.568325
-0.029757 0.012762 0.558000
-0.033510 0.002828 0.624292
-0.033691 0.002447 0.623788
-0.033863 0.002261 0.623634
-0.005090 0.009233 0.567372
-0.033083 0.003612 0.625567
-0.005466 0.011174 0.556123
-0.004957 0.011813 0.556952
-0.016818 0.012693 0.558347
-0.030330 0.007873 0.578631
-0.004804 0.011677 0.557009
-0.017338 0.010451 0.568893
-0.030493 0.013082 0.558218
-0.266321 0.054086 0.777255
-0.261011 0.039265 0.786684
-0.300963 0.042970 0.818921
-0.293115 0.034853 0.801565
0.105497 -0.020295 0.739986
-0.262928 0.043177 0.796717
-0.243422 0.073297 0.821048
0.115333 -0.015147 0.759450
-0.258574 0.035262 0.776303
-0.297387 0.039462 0.806448
-0.322525 0.034041 0.805564
0.105574 -0.020498 0.740489
-0.227951 0.055721 0.785816
-0.294870 0.035524 0.796066
-0.004302 0.012503 0.558203
-0.294108 0.036682 0.806647
-0.296744 0.053637 0.713246
0.105384 -0.020260 0.740150
-0.017417 0.011916 0.557139
-0.267802 0.056208 0.783545
-0.257864 0.033971 0.772383
-0.003904 0.008583 0.580200
-0.322679 0.034332 0.806049
0.104219 -0.021141 0.737686
-0.296862 0.053571 0.713452
-0.319552 0.031547 0.798434
-0.289400 0.030371 0.789815
-0.297767 0.041610 0.818785
0.066420 0.016920 0.818196
-0.293080 0.056288 0.792809
-0.319667 0.057217 0.779051
-0.291424 0.030117 0.780787
-0.017178 0.010598 0.569228
0.104492 -0.021403 0.738754
-0.260624 0.043346 0.752428
-0.292834 0.056025 0.791971
-0.017150 0.010806 0.569227
0.105469 -0.020895 0.740307
-0.319266 0.031101 0.797749
-0.296706 0.038450 0.804313
-0.317955 0.030055 0.793617
-0.292002 0.030846 0.783300
-0.017646 0.011662 0.556540
0.106252 -0.019751 0.741608
0.151487 -0.008162 0.788392
-0.190934 0.057404 0.744039
0.087361 0.040438 0.652585
0.149930 -0.009055 0.785465
-0.193570 0.069331 0.769660
-0.001512 0.012776 0.573427
-0.048829 0.013608 0.600675
-0.047225 0.008463 0.666262
-0.103160 0.037221 0.684006
0.002366 0.002498 0.638287
-0.026368 0.016140 0.577844
-0.109178 0.071319 0.568740
0.084084 0.037415 0.646893
-0.118492 0.057632 0.702822
-0.022055 0.002652 0.624936
-0.300910 0.058835 0.724611
0.148728 -0.009640 0.783043
0.083991 0.037386 0.646697
-0.201849 0.062043 0.759138
-0.193193 0.068319 0.767343
-0.227942 0.053817 0.781181
-0.020844 0.004630 0.629228
-0.191512 0.060273 0.750329
-0.028243 0.016094 0.562895
-0.124647 0.064667 0.626315
-0.109166 0.071977 0.569695
0.085639 0.038496 0.649636
0.026391 -0.000291 0.652387
0.009798 0.008280 0.580337
-0.109330 0.071031 0.568464
-0.299146 0.056588 0.719794
0.024471 -0.001948 0.648236
-0.233619 0.050042 0.769800
-0.118333 0.058042 0.703005
-0.187950 0.044617 0.716443
-0.049640 0.012346 0.598134
0.022250 -0.004107 0.643173
0.005836 -0.010371 0.648155
0.167024 -0.000402 0.814631
-0.118244 0.058079 0.702983
-0.134168 0.046188 0.705845
-0.193590 0.064559 0.759847
0.010471 0.009148 0.581500
-0.018602 0.004456 0.586573
0.020631 0.020265 0.560853
-0.360017 0.023452 0.798213
-0.201333 0.057392 0.773896
-0.118367 0.054398 0.695974
-0.039099 0.020805 0.569900
0.084489 0.037514 0.648600
-0.228646 0.052304 0.777395
-0.194545 0.067742 0.766740
-0.187561 0.054531 0.761524
-0.319591 0.060907 0.777638
-0.126144 0.022363 0.956323
-0.124884 0.021944 0.957017
-0.132764 0.021280 1.072273
-0.295619 0.045595 0.781152
-0.084847 0.071211 0.566885
-0.288882 0.036198 0.757510
-0.352031 0.034279 0.848763
-0.292289 0.040388 0.768873
-0.141984 -0.038033 0.883285
-0.130390 -0.044710 0.851127
-0.288805 0.036206 0.758072
0.007436 -0.013170 0.682837
-0.315165 0.055095 0.762435
-0.350670 0.032952 0.844693
-0.346419 0.029235 0.832885
-0.341667 0.024820 0.819071
0.166812 0.002361 0.784697
-0.368538 0.059618 0.695468
-0.288261 0.035833 0.756802
-0.335362 0.018614 0.799327
-0.364185 0.054796 0.685609
-0.306633 0.039435 0.734646
-0.324580 0.063654 0.793960
-0.142390 -0.040763 0.870359
-0.142379 -0.039871 0.875771
-0.293705 0.034233 0.791339
0.104864 -0.029402 0.730755
-0.114824 0.042151 0.839184
-0.130149 -0.043601 0.856100
-0.116317 0.035583 0.818816
-0.080133 0.032016 0.853820
-0.285767 0.024424 0.771393
-0.079385 0.033534 0.858697
-0.031431 0.037729 0.853103
-0.077367 0.039039 0.876285
0.011708 0.027802 0.822832
0.012535 0.028420 0.824905
-0.142551 -0.039408 0.878027
-0.031492 0.037082 0.850274
-0.076117 0.041884 0.884365
-0.116160 0.042748 0.840108
-0.128724 -0.043541 0.854495
-0.080079 0.031389 0.848894
0.016672 0.033237 0.839844
-0.263065 0.075123 0.787679
-0.128292 -0.041988 0.863946
-0.073516 -0.058420 0.841604
0.009160 0.024376 0.811314
-0.228572 0.051741 0.776049
-0.072436 0.042876 0.870922
-0.214443 0.068195 0.815492
-0.078214 0.037012 0.867080
0.016263 0.032619 0.837003
-0.134999 0.050761 0.839731
-0.213909 0.065159 0.807642
-0.312841 0.010467 0.775556
-0.078509 0.035328 0.863338
-0.133872 0.053644 0.847858
-0.073722 -0.057623 0.842839
-0.027492 0.015055 0.605881
-0.100109 0.064766 0.568227
0.097135 0.050712 0.589774
0.096686 0.050334 0.588589
-0.095638 0.022197 0.715290
-0.158163 0.080300 0.866812
-0.157369 0.062929 0.817903
-0.085513 0.010483 0.873770
-0.090051 0.079295 0.780394
-0.157296 0.061943 0.815235
-0.135326 0.037001 0.796923
-0.074675 0.018187 0.700642
-0.135125 0.036782 0.796076
-0.134693 0.039718 0.806117
-0.286568 0.061908 0.725468
-0.096114 0.018542 0.705978
-0.095305 0.022183 0.716412
-0.288152 0.064527 0.731021
-0.388160 -0.022012 0.697120
-0.258175 0.041418 0.763228
-0.373215 -0.028969 0.671103
-0.372669 -0.029235 0.670109
-0.373242 -0.028880 0.671631
-0.213573 0.065834 0.809945
-0.261614 0.046500 0.789088
-0.096043 0.021187 0.712072
-0.095460 0.020724 0.712087
-0.248775 0.077417 0.781924
-0.249348 0.078311 0.783977
-0.005792 0.009964 0.761349
-0.091964 0.039394 0.758421
-0.007126 0.008459 0.756748
-0.110664 0.028591 0.807427
-0.006392 0.009095 0.758558
-0.112357 0.017975 0.775859
-0.095870 0.022533 0.795911
-0.039259 0.010624 0.679822
-0.078178 0.038026 0.684513
-0.134661 0.049895 0.836803
-0.156843 0.052822 0.787763
-0.319091 0.054632 0.702023
-0.212200 0.063247 0.802480
-0.212141 0.062043 0.798978
-0.156918 0.051926 0.784667
-0.080854 0.022113 0.723806
-0.089542 0.025310 0.618621
-0.322112 0.057583 0.709232
-0.306171 0.040325 0.736039
-0.389910 0.021699 0.724833
-0.342006 0.019359 0.751175
-0.375051 -0.028051 0.675032
-0.096206 0.046403 0.707576
-0.341083 0.031246 0.638769
-0.067255 0.033460 0.746661
-0.076361 0.031347 0.749663
-0.073523 0.020697 0.708765
-0.076316 0.031333 0.749629
-0.073836 0.019964 0.706675
-0.080785 0.021254 0.720650
-0.088675 0.027043 0.620844
-0.089020 0.027002 0.622255
-0.306732 0.040024 0.736147
-0.190926 0.075176 0.814627
-0.159714 0.093222 0.904184
-0.135741 0.032545 0.781836
-0.140196 0.022714 0.707572
-0.070461 0.024920 0.838473
-0.070316 0.025073 0.839104
-0.201406 -0.071430 0.546119
-0.070202 0.025321 0.838188
-0.070765 0.023755 0.834204
-0.404104 -0.014709 0.725508
-0.291305 0.070084 0.743887
-0.387158 0.019867 0.719357
-0.326994 0.022493 0.755429
-0.388183 0.020510 0.721393
-0.391714 0.022594 0.727613
-0.384233 0.017876 0.713837
-0.122919 0.037611 0.777158
-0.076087 -0.005627 0.573825
-0.262991 0.048744 0.784821
-0.263071 0.048756 0.784242
-0.306425 0.040010 0.735465
-0.307058 0.041162 0.738260
-0.259465 0.043419 0.769434
-0.140087 0.039098 1.101894
-0.140792 0.039519 1.105281
-0.140382 0.038094 1.099907
-0.139906 0.039182 1.102489
-0.329832 0.024694 0.762903
-0.308383 0.060945 0.719690
-0.310895 0.048961 0.746782
-0.311796 0.015297 0.755938
-0.062984 -0.022712 0.595615
-0.032779 0.016842 0.752492
-0.405703 0.054550 0.662358
-0.310373 0.044962 0.747677
-0.262800 0.069633 0.773959
-0.254405 0.058522 0.742519
-0.302474 0.037241 0.726488
-0.270787 0.083631 0.809253
-0.318109 0.020388 0.773592
-0.278351 0.068361 0.746854
-0.303216 0.040130 0.724239
-0.088374 0.029736 0.627698
-0.237038 0.080629 0.793271
-0.257623 0.033579 0.771094
-0.111341 0.041746 0.675189
-0.111384 0.024491 0.793665
-0.138034 0.021819 0.703151
-0.295034 0.053420 0.716727
-0.343709 0.021564 0.757331
-0.354090 0.019169 0.647616
-0.330570 0.067828 0.735564
-0.286845 0.033759 0.750133
-0.317295 0.019265 0.770557
-0.310736 0.013304 0.750808
-0.267436 0.082384 0.801929
-0.272527 0.054669 0.835514
-0.391864 0.049747 0.612462
-0.059266 -0.020602 0.568148
-0.095709 0.048611 0.713148
-0.348685 0.040448 0.628250
-0.140673 0.058796 1.197963
-0.140757 -0.035949 0.461860
-0.347141 0.038546 0.625127
-0.346479 0.038077 0.624074
-0.140679 -0.037947 0.458146
-0.345436 0.037041 0.621910
-0.263794 0.051692 0.780398
-0.157587 -0.052930 0.412635
-0.245179 0.071213 0.766386
-0.244728 0.070120 0.763882
-0.246403 0.073029 0.770887
-0.420095 -0.006658 0.755029
-0.242926 0.066066 0.754409
-0.388684 0.017618 0.713322
-0.273043 0.043729 0.681643
-0.367269 0.038743 0.811760
-0.319369 0.054794 0.702002
-0.058634 -0.019967 0.569718
-0.402350 0.052600 0.657990
-0.386782 0.041399 0.635423
-0.363276 0.033071 0.629207
-0.261322 0.042426 0.791412
-0.315731 0.008386 0.594729
-0.302648 0.039189 0.722502
-0.305606 0.057630 0.712035
-0.369411 0.040229 0.816863
-0.151317 -0.050554 0.418267
-0.002481 0.013074 0.772988
-0.141026 -0.043231 0.446883
-0.141084 -0.042441 0.448372
-0.151320 -0.049528 0.420169
-0.140866 -0.040851 0.451630
-0.140974 -0.041939 0.449465
-0.151342 -0.049726 0.419756
-0.151351 -0.048063 0.423017
-0.288856 0.027545 0.782013
-0.439288 0.001808 0.787374
-0.284433 0.022682 0.766285
-0.271234 0.020539 0.642087
-0.181098 -0.049259 0.384820
-0.367406 0.035747 0.636828
-0.315260 0.008204 0.593899
-0.315486 0.008248 0.594274
-0.315879 0.006504 0.588995
-0.312018 0.002725 0.581715
-0.311450 0.004145 0.586336
-0.130888 0.031101 0.928576
-0.130446 0.031451 0.929466
-0.130283 0.030910 0.927671
-0.156677 -0.113435 0.320536
-0.156668 -0.113446 0.320465
-0.156668 -0.113445 0.320487
-0.156624 -0.113512 0.320238
-0.335200 0.011751 0.772001
-0.332119 0.009948 0.765379
-0.082365 0.018247 0.711382
-0.280941 0.030810 0.769591
-0.096720 0.046891 0.707877
-0.092360 -0.043937 0.479523
-0.139014 0.039955 0.702234
-0.258424 0.043433 0.757633
-0.086492 0.002994 0.721060
-0.051970 0.012755 0.710883
-0.050084 0.015695 0.720836
-0.049030 -0.006485 0.648945
-0.225274 -0.037980 0.440607
-0.214677 -0.041102 0.409405
-0.050750 0.014727 0.717536
-0.096351 0.027717 0.729506
-0.225538 -0.037608 0.441289
-0.225833 -0.037381 0.441807
-0.073551 0.020538 0.707776
-0.074339 0.068195 0.708741
-0.193662 -0.056164 0.424682
-0.052061 0.012851 0.711915
-0.084235 0.009387 0.744697
-0.048772 0.018074 0.728654
-0.070344 0.027196 0.725846
-0.078795 0.038076 0.682732
-0.085129 0.009454 0.742388
-0.079338 0.024713 0.675455
-0.122893 0.020623 0.755338
-0.139953 0.037939 0.696410
-0.197561 -0.058702 0.392321
-0.075753 0.036395 0.702274
-0.196715 -0.059592 0.390933
-0.130989 0.036163 0.686098
-0.204622 -0.045115 0.404095
-0.203855 -0.046158 0.402497
-0.131141 0.036555 0.686836
-0.203656 -0.046387 0.402143
-0.127978 0.034745 0.667955
-0.214595 -0.043602 0.431899
-0.127712 0.044397 0.691194
-0.216331 -0.041755 0.435495
-0.218623 -0.026163 0.418217
-0.216535 -0.041497 0.436251
-0.218281 -0.026581 0.417593
-0.130886 0.033482 0.679346
-0.205931 -0.056600 0.422158
-0.194838 -0.050924 0.390368
-0.208020 -0.054528 0.427260
-0.257125 0.040409 0.741260
-0.120471 0.048837 0.701001
-0.204881 -0.044619 0.404850
-0.126913 0.049208 0.702886
-0.257929 0.040756 0.743285
-0.192595 0.056550 0.775980
-0.191975 0.051675 0.763722
-0.258471 0.040884 0.743759
-0.189339 0.043278 0.740651
-0.190057 0.046974 0.751220
-0.145776 0.041668 0.712614
-0.322123 0.018440 0.580334
-0.192107 0.047915 0.754357
-0.334762 0.028425 0.602147
-0.054511 0.009029 0.698413
-0.048865 -0.003251 0.685764
-0.152916 0.060733 0.736696
-0.189784 0.043703 0.742173
-0.345042 0.036183 0.620550
-0.136964 0.040761 0.804821
-0.049326 0.017194 0.724878
-0.099188 0.018120 0.702009
-0.087122 0.002865 0.718584
-0.120520 0.042617 0.688614
-0.130601 0.039974 0.698959
-0.120474 0.044156 0.692542
-0.081454 0.020452 0.719872
-0.095289 0.020692 0.712952
-0.214927 -0.041045 0.409491
-0.123046 0.021582 0.759033
-0.212106 -0.043285 0.404660
-0.123279 0.022606 0.762272
-0.123750 0.021517 0.757469
-0.260057 0.043719 0.782333
-0.322248 0.064551 0.901472
-0.158731 0.064607 0.821990
-0.343565 -0.082412 0.909003
-0.278835 -0.025818 0.891712
-0.295898 0.029082 0.796064
-0.279464 -0.025266 0.895392
-0.364029 -0.028097 0.871765
-0.279987 -0.024484 0.900489
-0.337929 -0.084530 0.890205
-0.254758 0.030437 0.760498
-0.280508 -0.024049 0.902314
-0.360549 0.013941 0.777493
